161.32,161.67,161.45,160.60,158.65,156.77,155.03,153.38,151.84,150.28,148.22,145.89,143.53,141.42,139.81,138.31,136.72,134.84,132.72,130.12,127.28,124.41,121.36,117.98,114.03,109.02,102.31,97.44,93.69,90.24,86.59,83.98,82.19,80.43,78.37,76.62,74.95,73.19,71.38,69.85,69.20,68.67,68.06,67.45,67.17,67.17,67.13,66.93,66.70,66.00,65.07,64.09,63.13,62.15,61.35,60.65,60.16,60.49,60.93,61.19,61.19,60.95,60.80,60.78,60.83,60.95,61.31,62.14,63.17,64.29,65.41,66.54,67.55,68.38,68.85,68.47,66.84,64.63,62.36,60.30,59.34,58.77,58.21,57.44,56.54,55.74,55.04,54.47,54.08,53.69,53.20,52.62,52.04,51.49,50.99,50.66,50.70,50.94,51.86,52.98,54.00,55.37,56.52,56.35,54.96,53.58,52.16,50.85,49.88,49.52,49.27,49.28,49.42,49.68,50.08,50.52,51.08,51.82,52.75,53.77,54.78,55.30,54.99,54.70,54.74,54.90,55.07,55.31,55.66,56.17,56.83,57.50,57.67,57.05,56.18,55.32,54.44,53.61,52.77,51.94,51.12,50.24,49.70,49.30,48.87,48.45,47.99,47.53,47.07,46.61,46.15,45.69,45.41,45.55,45.77,46.00,46.26,46.56,46.84,47.18,47.57,47.99,48.41,48.70,48.99,49.25,49.34,48.98,48.00,46.88,45.78,44.63,43.53,42.46,41.44,40.50,39.72,39.08,38.47,37.82,37.20,36.59,35.95,35.31,34.68,34.00,33.30,32.62,32.03,31.78,31.79,31.91,32.06,32.21,32.37,32.47,32.60,32.84,33.10,33.20,33.14,32.92,32.76,32.61,32.38,32.02,31.36,30.70,30.18,29.75,29.39,29.01,28.72,28.55,28.51,28.62,28.77,28.92,29.07,29.22,29.34,29.32,29.25,29.16,29.00,28.79,28.58,28.39,28.19,27.93,27.70,27.50,27.28,27.15,27.20,27.38,27.65,27.92,28.13,28.23,28.26,28.30,28.16,28.68,29.60,30.66,31.59,32.06,32.23,32.15,31.76,30.75,28.93,26.60,24.03,21.27
159.60,159.87,159.49,158.55,156.72,154.83,153.22,151.85,150.60,149.24,146.84,144.11,141.51,139.00,136.94,135.00,133.04,131.09,128.96,126.39,123.70,121.17,118.41,115.22,111.33,106.39,100.17,95.68,91.88,87.92,83.45,80.75,79.62,78.51,76.74,75.44,74.64,73.66,72.17,70.18,69.35,68.70,67.93,67.19,67.15,67.53,67.72,67.53,67.21,66.23,65.09,63.97,62.87,61.72,60.61,59.83,59.56,59.58,59.70,59.81,59.86,59.85,59.90,59.96,60.04,60.15,60.38,61.07,62.05,63.19,64.27,65.34,66.32,67.11,67.55,67.85,66.56,64.41,62.13,60.38,59.72,59.22,58.51,57.60,56.67,55.84,55.08,54.40,53.72,53.03,52.40,51.84,51.28,50.73,50.24,49.86,49.73,49.85,50.70,51.72,52.64,54.20,55.92,56.25,55.05,53.47,51.89,50.61,49.75,49.38,49.07,48.96,49.04,49.27,49.50,49.69,50.05,50.66,51.58,52.72,53.78,54.27,53.89,53.53,53.55,53.69,53.89,54.22,54.78,55.49,56.25,57.00,57.58,57.10,56.25,55.41,54.55,53.75,52.93,52.08,51.22,50.30,49.69,49.25,48.83,48.38,47.91,47.44,46.96,46.43,45.95,45.44,45.05,45.05,45.26,45.49,45.75,46.05,46.29,46.59,46.97,47.39,47.77,48.09,48.41,48.74,49.04,48.97,48.10,47.01,45.91,44.78,43.75,42.74,41.73,40.75,39.87,39.22,38.59,37.92,37.29,36.61,35.92,35.26,34.62,33.94,33.24,32.57,31.97,31.48,31.37,31.42,31.56,31.71,31.86,31.97,32.09,32.33,32.64,32.73,32.64,32.41,32.24,32.08,31.93,31.68,31.10,30.42,29.87,29.46,29.14,28.76,28.39,28.10,27.98,28.11,28.27,28.42,28.58,28.73,28.88,28.87,28.80,28.71,28.56,28.34,28.11,27.90,27.73,27.51,27.29,27.05,26.85,26.79,26.95,27.20,27.43,27.59,27.71,27.59,27.33,27.14,27.08,27.53,28.34,29.40,30.60,31.22,31.49,31.50,31.14,29.66,27.87,25.93,23.66,21.03
157.27,157.23,156.59,155.45,153.89,152.47,151.05,149.49,147.69,146.02,143.78,141.11,138.11,134.92,132.36,130.05,127.77,125.47,123.29,121.34,119.54,117.68,115.38,112.34,108.36,103.48,98.48,94.21,89.15,83.72,79.44,77.09,75.89,74.75,73.38,72.67,72.13,71.55,70.84,69.94,68.89,67.98,67.31,67.10,67.70,68.16,68.29,68.06,67.52,66.48,65.36,64.23,63.04,61.83,60.62,59.78,59.49,59.28,59.22,59.22,59.24,59.24,59.26,59.31,59.41,59.56,59.78,60.19,60.95,62.05,63.12,64.11,65.02,65.77,66.17,66.54,66.24,64.93,62.70,61.20,60.31,59.51,58.65,57.72,56.80,55.93,55.15,54.45,53.76,53.02,52.31,51.67,51.07,50.47,49.98,49.61,49.39,49.48,49.92,50.55,51.44,53.09,54.91,55.63,54.92,53.13,51.35,50.20,49.57,49.25,48.94,48.69,48.64,48.83,49.05,49.22,49.49,49.95,50.71,51.95,52.85,53.13,52.76,52.43,52.38,52.51,52.81,53.44,54.15,54.91,55.68,56.45,57.22,57.01,56.33,55.52,54.62,53.78,52.94,52.07,51.17,50.30,49.69,49.22,48.72,48.25,47.75,47.26,46.77,46.23,45.72,45.18,44.74,44.57,44.75,44.98,45.24,45.54,45.78,46.07,46.40,46.76,47.14,47.46,47.80,48.16,48.47,48.71,48.11,47.13,46.06,45.02,44.00,43.00,42.00,41.00,40.02,39.24,38.56,37.91,37.24,36.55,35.88,35.24,34.56,33.87,33.18,32.51,31.89,31.26,31.06,31.05,31.12,31.27,31.37,31.46,31.58,31.83,32.18,32.28,32.17,31.89,31.68,31.51,31.39,31.23,30.86,30.18,29.65,29.25,28.89,28.56,28.19,27.83,27.58,27.62,27.79,27.98,28.13,28.27,28.38,28.40,28.36,28.27,28.11,27.90,27.67,27.44,27.23,27.05,26.84,26.61,26.43,26.54,26.79,26.94,26.88,26.72,26.59,26.39,26.14,25.96,26.11,26.27,26.78,27.78,28.52,29.24,29.69,29.70,29.04,27.82,26.37,24.73,22.79,20.60
154.68,154.36,153.48,152.14,150.58,149.13,147.38,145.38,143.38,141.74,139.80,137.31,134.17,130.88,127.97,125.25,122.73,120.56,118.78,117.37,116.03,114.43,112.30,109.38,105.54,100.94,96.43,91.61,85.89,80.19,76.25,73.72,72.41,71.52,70.72,70.38,70.02,69.65,69.31,68.96,68.05,67.54,67.45,67.71,68.45,68.81,68.87,68.58,67.83,66.75,65.67,64.62,63.41,62.15,60.91,59.96,59.47,59.10,58.87,58.75,58.70,58.67,58.69,58.75,58.88,59.09,59.32,59.61,60.14,60.96,61.92,62.83,63.69,64.38,64.77,65.16,65.38,64.83,63.22,61.81,60.60,59.57,58.68,57.81,56.94,56.06,55.23,54.48,53.78,53.05,52.33,51.63,50.96,50.31,49.79,49.41,49.14,49.18,49.44,49.87,50.65,52.28,54.08,55.08,54.77,52.84,50.94,49.91,49.45,49.12,48.78,48.46,48.33,48.44,48.61,48.80,49.08,49.50,50.16,51.31,51.97,52.05,51.65,51.31,51.28,51.52,52.03,52.83,53.63,54.43,55.23,56.03,56.85,56.83,56.28,55.46,54.57,53.71,52.86,51.99,51.08,50.21,49.60,49.09,48.56,48.09,47.57,47.06,46.58,46.05,45.50,44.96,44.47,44.15,44.25,44.47,44.73,45.03,45.27,45.56,45.85,46.16,46.54,46.86,47.22,47.58,47.90,48.27,48.04,47.30,46.23,45.22,44.19,43.18,42.18,41.17,40.14,39.29,38.57,37.91,37.19,36.49,35.83,35.20,34.50,33.81,33.13,32.47,31.81,31.13,30.82,30.70,30.70,30.79,30.87,30.95,31.08,31.35,31.73,31.82,31.68,31.38,31.15,30.98,30.80,30.60,30.34,29.82,29.41,29.05,28.68,28.34,27.96,27.57,27.25,27.17,27.32,27.49,27.65,27.80,27.91,27.94,27.91,27.82,27.67,27.45,27.22,26.99,26.76,26.57,26.38,26.18,26.04,26.08,26.15,26.11,25.91,25.63,25.39,25.16,24.93,24.75,24.89,24.91,25.26,26.12,26.50,27.21,27.69,27.63,26.90,25.91,24.71,23.27,21.63,20.25
151.77,151.20,150.11,148.60,146.84,144.96,142.57,140.07,138.20,136.84,135.23,132.97,129.97,127.00,123.80,120.69,118.01,116.33,115.19,114.16,112.94,111.31,109.15,106.34,102.83,98.64,94.06,88.14,82.34,77.39,73.87,70.89,69.55,69.06,68.87,68.67,68.42,68.15,67.90,67.67,67.19,67.48,68.19,68.77,69.25,69.43,69.41,69.11,68.19,67.08,66.08,65.12,63.94,62.66,61.39,60.29,59.51,59.03,58.65,58.40,58.25,58.16,58.18,58.25,58.41,58.70,58.94,59.23,59.56,60.00,60.74,61.54,62.33,62.99,63.38,63.77,64.14,64.17,63.49,62.08,60.64,59.50,58.67,57.88,57.09,56.23,55.33,54.51,53.78,53.07,52.37,51.65,50.90,50.20,49.64,49.22,48.94,48.90,49.17,49.56,50.16,51.63,53.35,54.56,54.62,52.69,50.78,49.80,49.41,49.04,48.65,48.32,48.13,48.11,48.19,48.39,48.74,49.21,49.80,50.72,51.11,51.02,50.59,50.24,50.31,50.77,51.53,52.38,53.22,54.06,54.91,55.74,56.52,56.59,56.11,55.26,54.41,53.56,52.72,51.85,50.94,50.08,49.44,48.90,48.37,47.90,47.38,46.87,46.39,45.85,45.30,44.77,44.24,43.79,43.78,43.96,44.22,44.52,44.76,45.05,45.32,45.59,45.97,46.29,46.64,46.98,47.30,47.66,47.84,47.43,46.44,45.42,44.36,43.32,42.30,41.29,40.22,39.36,38.61,37.91,37.15,36.44,35.78,35.14,34.44,33.74,33.10,32.45,31.76,31.06,30.61,30.37,30.31,30.31,30.37,30.45,30.59,30.90,31.28,31.34,31.17,30.87,30.64,30.46,30.20,29.88,29.65,29.39,29.13,28.84,28.46,28.09,27.71,27.33,26.97,26.76,26.84,26.99,27.15,27.30,27.45,27.49,27.46,27.38,27.22,27.01,26.77,26.54,26.31,26.09,25.89,25.75,25.63,25.42,25.14,24.89,24.65,24.41,24.18,23.95,23.72,23.53,23.49,23.48,23.77,24.40,24.57,25.19,25.57,25.43,24.80,23.97,22.95,21.73,20.45,19.99
147.93,147.11,145.88,144.36,142.45,139.90,137.25,134.95,133.43,132.16,130.63,128.61,126.04,123.33,119.73,116.33,113.77,112.64,111.68,110.61,109.37,107.85,105.74,103.12,99.92,96.05,91.37,84.46,79.13,75.57,72.62,69.87,68.78,68.47,68.27,67.97,67.57,67.38,67.45,67.59,67.50,68.21,69.15,69.55,69.75,69.81,69.80,69.62,68.96,67.89,66.83,65.80,64.68,63.48,62.08,60.73,59.70,59.19,58.82,58.50,58.20,57.94,57.75,57.79,58.02,58.32,58.61,58.87,59.13,59.43,59.90,60.39,60.99,61.60,62.03,62.42,62.84,63.08,62.78,61.58,60.52,59.63,58.82,58.00,57.22,56.38,55.50,54.61,53.76,52.98,52.24,51.49,50.73,50.06,49.51,49.06,48.70,48.64,48.94,49.36,49.85,50.83,52.36,53.84,54.48,53.09,51.36,50.18,49.54,49.23,48.81,48.43,48.08,47.79,47.77,47.94,48.33,48.83,49.28,49.87,50.09,49.98,49.69,49.51,49.93,50.61,51.42,52.31,53.17,54.01,54.86,55.70,56.43,56.34,55.77,54.96,54.12,53.30,52.48,51.62,50.76,49.94,49.28,48.71,48.18,47.71,47.19,46.66,46.14,45.60,45.06,44.55,44.04,43.55,43.33,43.45,43.71,44.01,44.25,44.54,44.81,45.07,45.40,45.71,46.01,46.28,46.55,46.83,47.17,47.22,46.76,45.69,44.59,43.50,42.43,41.41,40.34,39.45,38.66,37.91,37.19,36.49,35.81,35.12,34.38,33.68,33.03,32.39,31.69,31.00,30.43,30.08,29.97,29.92,29.93,29.99,30.14,30.46,30.84,30.86,30.66,30.36,30.13,29.91,29.67,29.41,29.22,29.00,28.73,28.45,28.16,27.83,27.48,27.13,26.75,26.44,26.43,26.54,26.69,26.84,26.95,27.02,27.04,26.98,26.79,26.56,26.33,26.10,25.87,25.63,25.42,25.23,25.00,24.55,24.09,23.71,23.44,23.20,22.97,22.74,22.52,22.34,22.14,22.05,22.16,22.48,22.60,23.14,23.45,23.28,22.69,21.89,21.16,20.54,20.05,19.92
143.15,142.30,141.03,139.38,137.17,134.56,132.13,130.16,128.84,127.59,126.03,124.10,121.73,118.95,115.06,111.50,108.99,108.00,107.17,106.25,105.22,104.00,102.15,99.83,96.92,93.05,87.55,80.91,76.35,73.64,71.39,69.44,68.65,68.33,68.01,67.57,67.10,67.05,67.42,67.84,68.09,68.91,69.76,69.97,70.00,70.01,70.05,70.01,69.63,68.77,67.73,66.64,65.54,64.28,62.77,61.21,59.95,59.39,59.02,58.65,58.24,57.84,57.48,57.45,57.65,57.94,58.23,58.48,58.71,58.95,59.26,59.57,59.99,60.48,60.92,61.31,61.75,62.10,62.08,61.27,60.55,59.88,59.19,58.41,57.63,56.81,55.91,54.88,53.78,52.85,52.02,51.24,50.48,49.87,49.34,48.86,48.45,48.37,48.66,49.09,49.53,50.14,51.31,52.75,53.84,53.42,52.14,50.85,49.90,49.47,49.03,48.61,48.13,47.61,47.37,47.48,47.84,48.28,48.62,48.96,49.05,48.99,48.97,49.20,49.89,50.69,51.48,52.34,53.20,54.05,54.89,55.69,56.37,56.14,55.47,54.67,53.83,53.02,52.20,51.35,50.53,49.77,49.11,48.52,47.98,47.50,46.98,46.45,45.91,45.37,44.83,44.32,43.82,43.30,42.91,42.94,43.18,43.47,43.71,43.98,44.26,44.52,44.80,45.01,45.24,45.49,45.72,45.95,46.38,46.79,46.85,45.96,44.91,43.80,42.69,41.63,40.58,39.65,38.88,38.24,37.63,36.98,36.33,35.65,34.88,34.08,33.31,32.55,31.76,30.96,30.28,29.86,29.69,29.56,29.54,29.59,29.74,30.01,30.32,30.31,30.10,29.83,29.64,29.43,29.21,28.99,28.81,28.59,28.32,28.05,27.81,27.53,27.23,26.89,26.52,26.16,26.01,26.07,26.22,26.36,26.45,26.54,26.60,26.56,26.35,26.12,25.88,25.65,25.40,25.16,24.93,24.70,24.43,23.97,23.42,22.93,22.52,22.18,21.86,21.56,21.33,21.18,20.95,20.84,20.85,20.95,21.04,21.40,21.59,21.46,21.06,20.47,20.06,19.88,19.88,19.89
137.41,136.80,135.60,133.69,131.10,129.18,127.44,125.81,124.42,123.15,121.47,119.40,116.85,113.61,109.61,106.09,103.56,102.21,101.56,101.08,100.54,99.78,98.43,96.51,93.79,89.53,82.54,77.62,74.02,71.40,70.00,69.35,68.85,68.38,67.92,67.35,66.97,67.10,67.68,68.26,68.76,69.39,69.89,69.99,70.00,70.05,70.15,70.24,70.11,69.60,68.73,67.66,66.51,65.01,63.41,61.78,60.29,59.60,59.16,58.75,58.29,57.84,57.38,57.23,57.31,57.55,57.80,58.03,58.26,58.51,58.81,59.12,59.41,59.73,60.12,60.52,60.97,61.38,61.61,61.33,60.78,60.25,59.77,59.13,58.39,57.58,56.61,55.36,53.92,52.70,51.72,50.93,50.17,49.63,49.12,48.61,48.18,48.06,48.31,48.73,49.17,49.60,50.26,51.28,52.54,53.48,52.94,51.75,50.54,49.74,49.28,48.83,48.27,47.60,47.01,46.99,47.23,47.54,47.79,48.04,48.05,48.08,48.46,49.35,50.16,50.94,51.70,52.44,53.26,54.10,54.92,55.66,56.24,55.97,55.27,54.43,53.58,52.73,51.89,51.06,50.28,49.57,48.92,48.34,47.80,47.26,46.77,46.26,45.71,45.18,44.64,44.11,43.58,43.04,42.52,42.43,42.60,42.89,43.14,43.37,43.64,43.93,44.14,44.15,44.33,44.59,44.83,45.07,45.53,46.14,46.61,46.23,45.29,44.21,43.11,41.99,40.97,40.03,39.35,38.97,38.55,38.04,37.48,36.87,36.06,35.06,34.04,33.03,32.05,31.01,30.22,29.73,29.48,29.22,29.15,29.23,29.39,29.56,29.74,29.68,29.49,29.28,29.17,29.02,28.82,28.60,28.38,28.14,27.91,27.67,27.44,27.19,26.90,26.59,26.26,25.89,25.59,25.56,25.71,25.86,25.95,26.07,26.16,26.11,25.89,25.66,25.43,25.18,24.89,24.65,24.42,24.19,23.96,23.75,23.25,22.63,22.01,21.43,20.91,20.49,20.20,20.11,20.01,19.96,19.96,20.00,20.07,20.15,20.18,20.16,20.08,19.93,19.84,19.80,19.81,19.88
131.98,131.62,130.71,129.19,127.24,125.54,123.83,122.10,120.42,118.83,116.85,114.50,111.69,108.01,104.20,101.26,99.35,98.31,97.92,97.67,97.27,96.51,95.29,93.30,89.94,85.03,79.32,75.28,71.91,69.51,69.18,68.92,68.54,68.10,67.66,67.19,66.84,67.01,67.63,68.24,68.83,69.41,69.84,69.98,70.00,70.06,70.17,70.32,70.43,70.16,69.53,68.57,67.25,65.78,64.23,62.54,60.82,59.77,59.21,58.77,58.29,57.79,57.32,56.98,56.89,57.12,57.35,57.58,57.84,58.11,58.37,58.64,58.89,59.19,59.67,60.21,60.73,61.13,61.33,61.43,61.04,60.58,60.18,59.72,59.11,58.34,57.31,55.88,54.35,52.96,51.72,50.68,49.91,49.38,48.88,48.34,47.88,47.75,47.98,48.37,48.74,49.13,49.60,50.24,51.16,52.36,52.77,52.30,51.31,50.24,49.58,48.96,48.28,47.55,46.87,46.48,46.45,46.68,46.91,47.10,47.29,47.67,48.44,49.52,50.34,51.09,51.86,52.60,53.36,54.07,54.73,55.36,55.87,55.72,55.12,54.27,53.42,52.58,51.72,50.89,50.13,49.46,48.87,48.31,47.79,47.14,46.56,46.02,45.48,44.94,44.43,43.91,43.37,42.83,42.28,42.01,42.01,42.28,42.55,42.79,43.07,43.34,43.50,43.43,43.48,43.66,43.94,44.17,44.67,45.35,46.02,46.24,45.59,44.64,43.63,42.57,41.63,40.83,40.21,39.81,39.53,39.22,38.78,38.15,37.24,36.18,35.10,34.03,32.96,31.77,30.62,29.83,29.44,29.09,28.86,28.86,29.01,29.15,29.23,29.15,28.98,28.80,28.68,28.53,28.38,28.21,27.98,27.75,27.52,27.29,27.05,26.78,26.51,26.24,25.97,25.67,25.33,25.19,25.24,25.36,25.47,25.59,25.66,25.62,25.40,25.17,24.91,24.64,24.38,24.14,23.91,23.68,23.46,23.30,22.95,22.48,21.89,21.23,20.60,20.16,19.91,19.80,19.71,19.69,19.69,19.70,19.77,19.82,19.84,19.84,19.79,19.76,19.75,19.75,19.75,19.78
127.34,127.14,126.45,125.30,123.95,122.19,120.25,118.29,116.39,114.47,112.18,109.53,106.45,102.76,99.42,97.07,95.71,95.02,94.84,94.72,94.38,93.55,92.18,89.81,85.94,80.93,76.89,73.44,70.28,68.22,68.56,68.40,68.06,67.69,67.37,67.07,66.75,66.90,67.52,68.12,68.73,69.31,69.75,69.97,70.00,70.05,70.15,70.33,70.62,70.57,70.20,69.44,68.11,66.66,65.07,63.25,61.29,59.91,59.25,58.77,58.29,57.76,57.28,56.80,56.55,56.70,56.92,57.16,57.42,57.70,57.94,58.20,58.49,58.84,59.40,60.04,60.60,60.95,61.08,61.41,61.24,60.88,60.52,60.19,59.73,59.03,57.94,56.36,54.79,53.27,51.80,50.50,49.69,49.14,48.62,48.08,47.60,47.39,47.60,47.95,48.28,48.68,49.07,49.45,49.98,51.05,52.10,52.39,51.89,50.78,49.91,49.12,48.36,47.62,46.91,46.17,45.82,45.84,46.06,46.29,46.74,47.48,48.52,49.64,50.45,51.17,51.92,52.64,53.30,53.88,54.42,54.95,55.43,55.48,55.06,54.22,53.38,52.54,51.70,50.89,50.14,49.52,49.00,48.53,48.05,47.32,46.64,46.02,45.42,44.84,44.28,43.72,43.16,42.64,42.09,41.64,41.48,41.67,41.96,42.21,42.48,42.74,42.85,42.76,42.69,42.76,43.02,43.28,43.82,44.52,45.28,45.96,45.72,45.06,44.19,43.21,42.37,41.66,41.06,40.62,40.44,40.28,39.96,39.35,38.38,37.32,36.21,35.05,33.86,32.52,31.05,29.98,29.44,29.03,28.63,28.52,28.63,28.75,28.75,28.64,28.48,28.33,28.19,28.04,27.91,27.79,27.58,27.35,27.13,26.90,26.64,26.36,26.11,25.88,25.64,25.39,25.05,24.83,24.77,24.87,25.00,25.10,25.15,25.12,24.89,24.66,24.39,24.09,23.86,23.63,23.40,23.17,22.95,22.77,22.57,22.25,21.79,21.18,20.48,20.05,19.84,19.71,19.61,19.57,19.57,19.59,19.66,19.73,19.76,19.75,19.69,19.66,19.67,19.68,19.68,19.68
124.39,124.11,123.35,122.12,120.73,118.53,116.11,113.86,112.02,109.95,107.46,104.49,101.20,98.48,96.03,94.05,92.67,92.08,91.91,91.83,91.56,90.76,88.83,85.64,81.98,78.33,75.20,72.17,69.65,68.11,68.09,67.84,67.48,67.20,67.09,67.07,66.73,66.84,67.44,68.00,68.61,69.18,69.66,69.96,70.00,70.01,70.09,70.27,70.57,70.81,70.73,70.28,69.35,67.76,65.85,63.73,61.54,60.00,59.31,58.81,58.30,57.82,57.30,56.80,56.45,56.35,56.55,56.78,57.01,57.25,57.50,57.89,58.34,58.84,59.38,59.89,60.38,60.70,60.82,61.12,61.28,61.14,60.77,60.46,60.17,59.54,58.42,56.74,55.07,53.45,51.86,50.43,49.57,48.93,48.36,47.84,47.37,46.97,47.05,47.39,47.79,48.23,48.63,48.98,49.36,49.98,50.82,51.62,51.94,51.27,50.23,49.41,48.70,47.99,47.23,46.36,45.59,45.13,45.33,45.76,46.53,47.50,48.58,49.66,50.45,51.15,51.82,52.40,52.86,53.37,53.90,54.44,54.97,55.32,55.14,54.35,53.50,52.70,51.92,51.16,50.46,49.88,49.51,49.21,48.81,48.13,47.40,46.63,45.84,45.10,44.27,43.53,42.92,42.44,41.91,41.38,41.08,41.10,41.33,41.62,41.88,42.09,42.16,42.10,41.99,41.95,42.09,42.38,42.97,43.69,44.45,45.13,45.53,45.42,44.83,43.86,43.10,42.32,41.67,41.31,41.14,40.98,40.76,40.34,39.45,38.45,37.23,35.84,34.37,32.87,31.30,30.10,29.43,28.97,28.52,28.27,28.23,28.30,28.25,28.13,27.97,27.83,27.73,27.59,27.45,27.30,27.13,26.90,26.71,26.50,26.21,25.96,25.73,25.50,25.25,24.96,24.69,24.43,24.27,24.41,24.51,24.59,24.66,24.66,24.39,24.15,23.88,23.59,23.35,23.12,22.89,22.66,22.43,22.21,22.03,21.81,21.52,21.13,20.44,19.98,19.79,19.70,19.56,19.47,19.46,19.53,19.60,19.63,19.64,19.63,19.61,19.56,19.58,19.62,19.62,19.62
120.80,120.28,119.24,117.73,115.95,113.76,111.48,109.33,107.37,105.20,102.85,100.23,97.43,95.04,92.87,90.97,89.44,88.55,88.32,88.21,87.91,87.08,85.03,82.37,79.59,76.91,74.42,71.47,69.33,68.16,67.77,67.63,67.48,67.38,67.33,67.09,66.70,66.80,67.38,67.95,68.51,68.87,69.23,69.73,69.95,70.00,70.05,70.20,70.43,70.73,70.83,70.63,69.91,68.32,66.26,63.99,61.73,60.09,59.34,58.83,58.30,57.83,57.31,56.79,56.34,56.06,56.14,56.35,56.56,56.77,57.05,57.53,58.09,58.67,59.24,59.79,60.17,60.40,60.51,60.81,61.05,61.12,60.99,60.76,60.55,60.09,59.27,58.00,56.32,54.59,52.62,50.60,49.57,48.93,48.39,47.86,47.36,46.86,46.72,46.86,47.22,47.64,48.01,48.34,48.70,49.25,49.95,50.81,51.48,51.45,50.59,49.79,49.05,48.27,47.45,46.52,45.59,44.88,44.87,45.50,46.42,47.45,48.48,49.49,50.29,50.93,51.47,51.97,52.41,52.91,53.43,53.94,54.44,54.89,54.97,54.51,53.76,53.02,52.28,51.55,50.88,50.34,50.04,49.82,49.50,48.93,48.20,47.39,46.55,45.70,44.78,43.93,43.16,42.44,41.76,41.18,40.75,40.58,40.75,41.04,41.30,41.49,41.52,41.46,41.31,41.19,41.24,41.53,42.10,42.77,43.43,44.08,44.70,45.05,45.00,44.44,43.70,42.92,42.34,42.05,41.88,41.64,41.32,40.86,40.11,39.23,37.90,36.31,34.69,33.04,31.35,30.11,29.42,28.92,28.45,28.08,27.87,27.86,27.76,27.62,27.48,27.36,27.25,27.13,26.99,26.84,26.68,26.49,26.30,26.08,25.81,25.57,25.32,25.07,24.83,24.56,24.32,24.06,23.88,23.93,24.01,24.08,24.16,24.20,24.07,23.73,23.37,23.08,22.84,22.58,22.36,22.15,21.92,21.69,21.51,21.32,21.04,20.61,20.18,19.90,19.73,19.65,19.54,19.42,19.38,19.46,19.50,19.54,19.55,19.54,19.51,19.47,19.48,19.52,19.55,19.55
116.41,115.72,114.48,112.76,110.69,108.71,106.75,104.79,102.75,100.61,98.52,96.39,94.16,91.91,89.77,87.83,86.14,84.89,84.58,84.42,84.10,83.35,81.58,79.91,78.09,76.02,73.94,71.06,69.16,68.20,67.63,67.66,67.75,67.78,67.66,67.11,66.67,66.76,67.28,67.80,68.20,68.28,68.45,69.07,69.57,69.73,69.82,69.96,70.17,70.46,70.66,70.63,70.05,68.51,66.40,64.08,61.85,60.16,59.38,58.84,58.32,57.84,57.33,56.78,56.26,55.85,55.75,55.89,56.08,56.26,56.57,57.12,57.73,58.35,58.96,59.53,59.83,59.99,60.16,60.48,60.74,60.98,61.11,60.97,60.81,60.54,60.13,59.38,57.88,56.02,53.66,51.07,49.70,49.06,48.55,48.02,47.48,46.94,46.53,46.39,46.64,47.00,47.33,47.65,48.04,48.65,49.28,50.03,50.83,51.38,50.89,50.16,49.37,48.52,47.63,46.64,45.62,44.74,44.42,45.20,46.19,47.20,48.19,49.14,49.96,50.58,51.02,51.47,51.93,52.44,52.95,53.42,53.88,54.33,54.63,54.58,54.05,53.38,52.68,51.99,51.32,50.84,50.58,50.39,50.10,49.66,49.01,48.22,47.34,46.41,45.48,44.55,43.61,42.65,41.78,41.11,40.54,40.15,40.23,40.48,40.72,40.88,40.88,40.82,40.66,40.50,40.47,40.72,41.21,41.77,42.35,43.00,43.69,44.38,44.86,44.80,44.20,43.52,43.02,42.79,42.56,42.19,41.72,41.16,40.53,39.80,38.39,36.66,34.94,33.17,31.40,30.13,29.44,28.91,28.43,27.97,27.61,27.48,27.31,27.13,26.99,26.89,26.76,26.66,26.54,26.39,26.24,26.08,25.88,25.66,25.43,25.18,24.90,24.63,24.40,24.17,23.94,23.72,23.53,23.46,23.50,23.57,23.65,23.73,23.77,23.35,22.90,22.58,22.33,22.04,21.82,21.63,21.41,21.17,20.98,20.79,20.52,20.02,19.89,19.79,19.66,19.59,19.52,19.39,19.33,19.37,19.39,19.45,19.48,19.46,19.40,19.39,19.39,19.41,19.47,19.49
109.97,109.56,108.66,107.30,105.75,104.10,102.28,100.41,98.66,96.88,95.01,92.97,90.79,88.79,86.64,84.60,82.83,81.54,81.12,80.99,80.88,80.59,79.96,79.20,77.74,75.50,73.28,70.97,69.09,67.98,68.01,68.15,68.25,68.12,67.65,67.05,66.61,66.65,67.01,67.16,67.14,66.96,66.85,67.11,67.99,68.48,68.81,69.14,69.57,69.90,70.06,70.02,69.60,68.05,65.98,63.80,61.74,60.20,59.44,58.93,58.43,57.92,57.43,56.87,56.30,55.80,55.38,55.41,55.55,55.68,55.95,56.50,57.11,57.73,58.31,58.69,58.97,59.28,59.66,60.13,60.46,60.75,60.95,60.85,60.66,60.59,60.49,60.08,59.28,57.30,54.83,52.30,50.17,49.33,48.83,48.33,47.78,47.24,46.63,46.15,46.03,46.31,46.63,47.00,47.46,48.08,48.75,49.42,50.13,50.80,50.92,50.40,49.63,48.74,47.73,46.63,45.50,44.43,43.68,44.35,45.34,46.34,47.34,48.33,49.23,49.99,50.56,50.97,51.42,51.90,52.39,52.91,53.32,53.73,54.06,54.28,54.30,53.76,53.06,52.38,51.77,51.33,51.09,50.87,50.52,50.17,49.71,49.02,48.10,47.12,46.19,45.22,44.25,43.31,42.40,41.51,40.66,39.98,39.88,39.97,40.10,40.20,40.25,40.19,40.08,39.96,39.87,39.98,40.23,40.68,41.35,42.09,42.83,43.58,44.22,44.52,44.56,44.15,43.72,43.44,42.95,42.41,41.86,41.30,40.69,40.08,38.76,37.03,35.25,33.43,31.68,30.36,29.58,29.08,28.61,28.11,27.64,27.29,27.01,26.74,26.53,26.40,26.30,26.17,26.06,25.95,25.79,25.64,25.47,25.27,25.04,24.75,24.49,24.25,24.02,23.79,23.60,23.43,23.25,23.08,23.02,23.06,23.16,23.28,23.29,23.04,22.60,22.12,21.83,21.52,21.27,21.08,20.89,20.67,20.37,20.16,20.06,19.86,19.77,19.70,19.61,19.52,19.45,19.36,19.29,19.27,19.31,19.34,19.35,19.35,19.33,19.32,19.32,19.33,19.36,19.41
103.84,103.60,103.02,102.07,100.92,99.57,98.03,96.43,94.92,93.34,91.76,89.93,87.78,85.84,83.69,81.86,80.46,79.46,79.00,78.90,78.91,78.89,78.86,78.63,77.47,75.33,73.21,71.25,69.47,68.34,68.53,68.66,68.57,68.23,67.64,67.11,66.63,66.60,66.93,67.06,67.01,66.89,66.90,67.19,67.58,67.65,67.69,67.90,68.39,68.83,69.16,69.34,69.14,67.64,65.70,63.72,61.90,60.37,59.57,59.02,58.52,57.98,57.46,56.87,56.27,55.70,55.10,54.95,55.00,55.10,55.32,55.85,56.48,57.06,57.53,57.77,58.03,58.52,59.30,60.00,60.45,60.68,60.67,60.50,60.21,60.23,60.38,60.29,60.04,58.66,56.48,53.81,51.32,49.92,49.15,48.65,48.14,47.60,46.88,46.17,45.71,45.69,45.93,46.36,46.92,47.55,48.20,48.82,49.45,50.12,50.55,50.34,49.72,48.79,47.69,46.54,45.39,44.23,43.25,43.55,44.37,45.29,46.18,47.07,48.01,48.92,49.75,50.41,50.89,51.31,51.74,52.21,52.60,52.99,53.36,53.70,54.03,53.88,53.40,52.79,52.25,51.83,51.56,51.30,50.94,50.60,50.23,49.65,48.82,47.83,46.86,45.87,44.88,43.89,42.90,41.86,40.84,39.98,39.68,39.64,39.67,39.72,39.76,39.70,39.60,39.50,39.44,39.53,39.67,40.00,40.56,41.27,42.03,42.80,43.48,43.93,44.26,44.11,43.88,43.70,43.17,42.56,41.99,41.44,40.85,40.28,39.05,37.40,35.62,33.86,32.19,30.77,29.76,29.27,28.78,28.26,27.75,27.32,26.97,26.66,26.39,26.18,25.98,25.77,25.60,25.46,25.31,25.18,25.04,24.86,24.62,24.34,24.10,23.88,23.67,23.45,23.28,23.12,22.95,22.73,22.60,22.61,22.69,22.80,22.83,22.72,22.34,21.79,21.38,21.02,20.75,20.55,20.39,20.25,20.01,19.85,19.82,19.77,19.70,19.61,19.54,19.46,19.38,19.31,19.23,19.18,19.21,19.25,19.27,19.26,19.23,19.25,19.27,19.27,19.27,19.34
98.02,97.86,97.56,97.03,96.21,95.15,94.02,92.84,91.53,90.04,88.78,87.23,85.11,83.11,81.06,79.64,78.84,78.24,77.82,77.72,77.78,77.86,77.98,78.01,77.20,75.43,73.56,71.78,70.21,69.16,69.12,69.15,68.78,68.23,67.70,67.25,66.68,66.59,67.00,67.36,67.57,67.75,68.12,68.66,68.14,67.38,66.84,66.75,67.16,67.69,68.25,68.72,68.68,67.33,65.56,63.82,62.23,60.65,59.75,59.12,58.58,58.03,57.44,56.83,56.21,55.59,54.92,54.56,54.44,54.52,54.69,55.22,55.83,56.35,56.65,56.82,57.03,57.71,59.01,59.98,60.60,60.69,60.36,60.00,59.52,59.54,59.85,60.09,60.27,59.90,58.31,55.49,52.95,50.84,49.59,48.99,48.51,47.98,47.23,46.39,45.64,45.19,45.27,45.72,46.38,46.99,47.61,48.19,48.76,49.38,49.93,50.03,49.60,48.64,47.51,46.35,45.20,44.04,43.00,42.79,43.30,44.07,44.79,45.52,46.45,47.52,48.67,49.73,50.26,50.62,50.98,51.38,51.77,52.17,52.57,52.98,53.42,53.75,53.62,53.14,52.71,52.34,52.01,51.70,51.36,50.98,50.59,50.12,49.46,48.47,47.45,46.43,45.39,44.31,43.23,42.11,40.99,40.05,39.59,39.43,39.39,39.39,39.38,39.31,39.20,39.10,39.12,39.25,39.41,39.62,39.96,40.56,41.28,42.05,42.73,43.16,43.48,43.56,43.60,43.64,43.27,42.70,42.12,41.57,41.02,40.42,39.31,37.80,36.06,34.42,32.84,31.30,30.01,29.46,28.92,28.39,27.90,27.51,27.13,26.80,26.49,26.17,25.82,25.51,25.24,25.03,24.87,24.75,24.61,24.42,24.19,23.95,23.72,23.52,23.35,23.12,22.96,22.80,22.63,22.41,22.25,22.20,22.22,22.30,22.37,22.37,22.09,21.56,20.98,20.56,20.28,20.09,19.97,19.93,19.85,19.77,19.70,19.69,19.63,19.55,19.48,19.40,19.32,19.24,19.16,19.11,19.11,19.16,19.19,19.18,19.12,19.17,19.19,19.20,19.21,19.27
92.28,92.16,92.10,92.03,91.72,91.13,90.50,89.82,88.91,87.62,86.46,84.98,82.94,81.04,79.57,78.52,77.78,77.15,76.68,76.52,76.54,76.66,76.77,76.95,76.73,75.79,74.01,72.46,71.20,70.23,69.67,69.40,69.00,68.51,67.95,67.31,66.61,66.55,67.10,67.68,68.24,68.80,69.35,69.75,69.36,68.36,67.69,67.65,67.85,68.11,68.36,68.51,68.31,67.25,65.69,64.05,62.50,60.95,59.94,59.23,58.64,58.05,57.48,56.88,56.26,55.64,54.99,54.39,54.02,53.94,54.06,54.59,55.14,55.56,55.72,55.83,56.02,56.83,58.51,59.85,60.53,60.60,60.19,59.51,58.59,58.31,58.64,59.36,59.98,60.09,59.23,57.21,54.70,52.28,50.48,49.36,48.84,48.30,47.55,46.70,45.88,45.21,44.83,45.01,45.63,46.21,46.81,47.38,47.97,48.63,49.23,49.35,48.96,48.07,46.93,45.81,44.68,43.53,42.49,41.91,42.02,42.54,43.23,43.93,44.86,46.04,47.38,48.58,49.20,49.67,50.13,50.55,50.95,51.41,51.89,52.38,52.89,53.22,53.30,53.19,53.02,52.80,52.48,52.11,51.69,51.26,50.86,50.42,49.82,48.82,47.69,46.54,45.39,44.26,43.13,41.97,40.87,39.95,39.51,39.20,39.07,39.06,39.01,38.94,38.84,38.77,38.79,38.89,39.11,39.35,39.62,40.05,40.63,41.34,41.99,42.35,42.66,42.83,42.99,43.21,43.29,42.86,42.28,41.70,41.15,40.55,39.63,38.33,36.67,35.09,33.50,31.93,30.53,29.65,29.05,28.54,28.08,27.70,27.31,26.98,26.65,26.29,25.96,25.60,25.28,25.01,24.75,24.52,24.28,24.03,23.80,23.56,23.37,23.20,23.04,22.81,22.64,22.49,22.32,22.14,21.94,21.80,21.75,21.79,21.86,21.88,21.73,21.36,20.76,20.25,20.02,19.95,19.90,19.85,19.77,19.70,19.63,19.58,19.55,19.49,19.41,19.34,19.26,19.19,19.11,19.04,19.04,19.05,19.07,19.06,19.04,19.06,19.10,19.14,19.14,19.16
87.06,87.25,87.56,87.94,88.07,87.80,87.58,87.33,86.64,85.52,84.31,82.86,81.12,79.58,78.53,77.65,76.83,76.11,75.58,75.33,75.30,75.42,75.51,75.81,76.07,75.86,74.50,73.25,72.16,71.18,70.30,69.73,69.17,68.56,67.90,67.12,66.32,66.25,66.87,67.54,68.26,69.21,70.07,70.38,70.16,69.30,68.70,68.65,68.63,68.54,68.31,67.96,67.56,67.06,65.81,64.25,62.74,61.27,60.17,59.37,58.75,58.14,57.59,57.00,56.38,55.78,55.11,54.33,53.72,53.42,53.44,53.93,54.38,54.66,54.73,54.81,55.13,56.17,58.11,59.72,60.44,60.51,60.03,59.05,57.80,57.15,57.29,58.26,59.18,59.72,59.53,58.33,56.09,53.79,51.66,49.98,49.22,48.60,47.85,47.02,46.18,45.38,44.69,44.49,44.82,45.38,45.97,46.55,47.16,47.80,48.34,48.41,48.08,47.37,46.26,45.16,44.06,42.96,41.92,41.20,41.00,41.20,41.68,42.35,43.41,44.81,46.32,47.42,48.07,48.61,49.15,49.70,50.23,50.76,51.30,51.83,52.32,52.61,52.80,52.92,52.92,52.81,52.60,52.32,51.97,51.50,51.05,50.58,49.97,48.96,47.78,46.56,45.35,44.19,43.03,41.87,40.78,39.89,39.49,39.13,38.91,38.80,38.67,38.58,38.49,38.42,38.45,38.56,38.82,39.09,39.34,39.66,40.09,40.66,41.23,41.58,41.87,42.11,42.38,42.72,43.07,42.85,42.36,41.77,41.23,40.64,39.84,38.69,37.08,35.55,33.96,32.39,30.93,29.83,29.18,28.70,28.27,27.89,27.50,27.17,26.83,26.45,26.12,25.76,25.41,25.09,24.78,24.47,24.16,23.87,23.61,23.34,23.12,22.92,22.72,22.52,22.33,22.17,22.01,21.85,21.63,21.43,21.32,21.31,21.36,21.39,21.34,21.13,20.59,20.08,19.89,19.88,19.86,19.79,19.71,19.63,19.56,19.48,19.45,19.41,19.35,19.27,19.20,19.11,19.04,18.98,18.98,18.98,18.98,18.98,18.98,18.98,19.02,19.07,19.07,19.07
82.51,83.31,84.15,84.94,85.39,85.24,85.30,85.34,84.68,83.64,82.29,80.90,79.67,78.74,77.82,76.87,75.92,75.11,74.52,74.18,74.07,74.16,74.24,74.65,75.17,75.48,74.96,74.06,72.99,71.93,71.01,70.20,69.25,68.29,67.41,66.56,65.72,65.59,66.15,66.78,67.44,68.80,70.13,70.50,70.34,69.90,69.52,69.29,69.04,68.59,67.80,66.87,66.34,66.68,65.86,64.41,62.96,61.62,60.44,59.57,58.95,58.33,57.78,57.19,56.59,56.00,55.20,54.37,53.59,52.98,52.84,53.24,53.53,53.65,53.71,53.79,54.41,55.77,57.88,59.63,60.38,60.42,59.85,58.66,57.25,56.16,55.89,56.82,57.86,58.80,59.20,58.67,56.99,55.20,53.04,50.92,49.68,48.90,48.15,47.34,46.49,45.66,44.89,44.27,44.01,44.54,45.10,45.72,46.35,46.88,47.24,47.23,47.02,46.57,45.54,44.47,43.41,42.38,41.36,40.68,40.36,40.22,40.28,40.85,42.17,43.90,45.56,46.34,46.93,47.48,48.09,48.84,49.63,50.24,50.79,51.31,51.71,51.97,52.16,52.29,52.35,52.29,52.28,52.27,52.16,51.67,51.15,50.59,49.91,48.91,47.77,46.56,45.36,44.20,43.04,41.89,40.80,39.93,39.55,39.23,38.94,38.67,38.40,38.28,38.15,38.05,38.08,38.28,38.56,38.83,39.08,39.38,39.65,40.01,40.45,40.86,41.14,41.46,41.84,42.21,42.58,42.63,42.32,41.77,41.23,40.68,39.93,38.80,37.20,35.71,34.18,32.63,31.16,29.97,29.31,28.86,28.46,28.08,27.69,27.36,27.02,26.64,26.26,25.93,25.57,25.21,24.91,24.60,24.29,23.98,23.67,23.31,23.00,22.71,22.45,22.27,22.05,21.86,21.70,21.53,21.31,21.09,20.92,20.86,20.86,20.91,20.93,20.82,20.43,20.04,19.85,19.80,19.80,19.73,19.65,19.57,19.49,19.42,19.35,19.31,19.28,19.21,19.13,19.05,18.98,18.91,18.90,18.90,18.90,18.90,18.91,18.91,18.95,19.00,19.00,19.00
78.47,79.64,80.83,81.93,82.69,82.84,83.06,83.22,82.73,81.73,80.66,79.65,78.75,77.96,77.06,76.10,75.11,74.19,73.45,72.98,72.82,72.94,73.06,73.53,74.05,74.41,74.45,74.14,73.44,72.52,71.52,70.65,69.49,68.02,66.43,65.36,64.47,64.26,64.67,65.29,66.26,68.19,70.04,70.67,70.62,70.16,69.59,68.98,68.22,67.33,66.27,65.37,65.27,65.84,65.61,64.68,63.31,62.04,60.79,59.82,59.13,58.52,57.97,57.41,56.80,56.10,55.27,54.42,53.61,52.88,52.37,52.42,52.55,52.63,52.70,52.73,53.50,55.21,57.75,59.60,60.30,60.32,59.78,58.61,56.97,55.39,54.62,55.38,56.38,57.39,58.17,58.36,57.35,55.75,53.80,51.83,50.33,49.29,48.46,47.67,46.86,46.06,45.28,44.50,43.86,43.78,44.24,44.84,45.42,45.88,46.13,46.05,45.85,45.55,44.79,43.77,42.72,41.72,40.79,40.27,40.02,39.91,39.90,40.21,41.45,43.07,44.54,45.18,45.84,46.54,47.30,48.15,49.01,49.66,50.25,50.78,51.13,51.39,51.55,51.67,51.77,51.77,51.83,51.96,51.99,51.59,51.07,50.53,49.90,48.94,47.82,46.64,45.47,44.35,43.19,42.10,41.09,40.26,39.76,39.41,39.10,38.79,38.49,38.23,37.96,37.76,37.76,37.97,38.22,38.48,38.71,38.97,39.18,39.46,39.82,40.23,40.56,40.96,41.37,41.76,42.13,42.42,42.26,41.72,41.18,40.63,39.87,38.74,37.22,35.75,34.25,32.75,31.30,30.06,29.46,29.04,28.66,28.27,27.88,27.52,27.17,26.82,26.44,26.08,25.73,25.39,25.04,24.72,24.41,24.11,23.79,23.41,23.08,22.77,22.48,22.22,21.92,21.65,21.42,21.21,20.99,20.79,20.61,20.47,20.41,20.37,20.34,20.30,20.13,19.92,19.80,19.75,19.73,19.66,19.59,19.51,19.43,19.36,19.27,19.22,19.18,19.14,19.06,18.99,18.91,18.84,18.80,18.79,18.79,18.80,18.84,18.84,18.87,18.90,18.94,18.95
74.87,76.30,77.76,79.14,80.19,80.58,80.89,81.04,80.68,79.78,79.06,78.45,77.81,77.12,76.28,75.33,74.33,73.34,72.44,71.83,71.58,71.70,71.88,72.36,72.82,73.17,73.54,73.70,73.47,72.85,71.85,70.97,69.78,67.99,65.73,64.24,63.18,62.77,62.97,63.65,65.05,67.46,69.76,70.74,70.82,70.33,69.43,68.21,66.92,65.69,64.55,63.88,64.24,64.88,65.20,64.80,63.59,62.37,61.10,60.07,59.33,58.73,58.18,57.61,56.96,56.16,55.33,54.50,53.68,52.86,52.02,51.70,51.63,51.64,51.66,51.66,52.45,54.45,57.52,59.56,60.23,60.23,59.76,58.64,56.85,54.82,53.50,53.86,54.78,55.80,56.84,57.68,57.52,56.20,54.48,52.73,51.08,49.81,48.88,48.08,47.31,46.54,45.77,44.90,43.99,43.33,43.48,43.93,44.44,44.86,45.01,44.87,44.67,44.46,43.97,43.06,42.00,40.98,40.28,39.95,39.81,39.77,39.79,39.89,40.93,42.26,43.45,44.11,44.87,45.70,46.58,47.49,48.36,49.05,49.66,50.23,50.57,50.81,50.96,51.06,51.20,51.24,51.35,51.55,51.71,51.45,50.97,50.48,49.94,49.04,47.92,46.77,45.63,44.56,43.45,42.44,41.51,40.69,40.02,39.62,39.29,38.96,38.63,38.25,37.87,37.56,37.46,37.59,37.80,38.03,38.26,38.47,38.64,38.89,39.24,39.63,40.04,40.49,40.93,41.33,41.74,42.19,42.12,41.59,41.05,40.50,39.67,38.54,37.12,35.70,34.25,32.79,31.36,30.11,29.57,29.21,28.83,28.46,28.07,27.69,27.33,27.01,26.63,26.24,25.89,25.55,25.18,24.86,24.54,24.23,23.91,23.55,23.21,22.90,22.59,22.27,21.90,21.56,21.27,21.02,20.77,20.56,20.35,20.14,20.05,19.94,19.88,19.88,19.87,19.81,19.73,19.68,19.67,19.60,19.52,19.45,19.36,19.29,19.21,19.13,19.08,19.07,19.00,18.93,18.85,18.77,18.70,18.68,18.68,18.70,18.77,18.78,18.79,18.82,18.88,18.90
71.95,73.52,75.20,76.83,78.10,78.59,78.82,78.84,78.38,77.72,77.29,76.96,76.57,76.12,75.44,74.57,73.56,72.56,71.58,70.82,70.38,70.39,70.65,71.04,71.47,71.89,72.27,72.51,72.75,72.71,71.88,71.04,70.12,68.51,65.97,63.66,62.14,61.30,61.17,62.07,63.97,66.63,69.16,70.58,70.85,70.51,69.16,66.96,65.22,63.94,63.00,62.62,63.25,63.93,64.55,64.56,63.64,62.49,61.31,60.30,59.54,58.98,58.44,57.77,57.00,56.17,55.38,54.60,53.76,52.84,51.89,51.28,50.95,50.77,50.61,50.58,51.20,53.31,57.03,59.47,60.20,60.20,59.77,58.69,56.92,54.59,52.62,52.18,53.00,54.05,55.23,56.52,57.55,56.87,55.38,53.62,51.96,50.56,49.51,48.66,47.88,47.11,46.34,45.43,44.41,43.53,42.88,42.94,43.43,43.88,43.91,43.73,43.53,43.35,43.05,42.34,41.20,40.11,39.90,39.77,39.68,39.66,39.72,39.81,40.52,41.43,42.38,43.30,44.16,44.99,45.87,46.79,47.71,48.41,49.03,49.60,49.98,50.24,50.39,50.49,50.63,50.71,50.88,51.12,51.36,51.32,50.95,50.51,50.02,49.20,48.12,46.95,45.84,44.83,43.86,42.95,42.06,41.17,40.37,39.86,39.45,39.08,38.70,38.32,37.93,37.54,37.19,37.07,37.23,37.46,37.68,37.85,38.00,38.29,38.66,39.07,39.56,40.05,40.50,40.95,41.41,41.87,41.83,41.34,40.79,40.20,39.25,38.08,36.81,35.53,34.16,32.73,31.30,30.11,29.61,29.30,28.97,28.65,28.27,27.88,27.52,27.20,26.82,26.43,26.05,25.69,25.37,25.00,24.67,24.36,24.05,23.73,23.37,23.03,22.71,22.40,22.03,21.69,21.38,21.09,20.79,20.46,20.16,19.95,19.86,19.83,19.81,19.81,19.81,19.74,19.66,19.62,19.60,19.54,19.46,19.38,19.30,19.23,19.15,19.07,19.02,19.01,18.94,18.86,18.79,18.71,18.63,18.62,18.62,18.63,18.70,18.71,18.76,18.80,18.83,18.88
70.57,72.07,73.80,75.34,76.27,76.57,76.63,76.41,75.74,75.14,75.02,74.90,74.63,74.65,74.45,73.84,72.89,71.89,70.89,70.03,69.46,69.30,69.50,69.84,70.25,70.67,71.06,71.44,71.88,72.16,71.80,71.11,70.27,68.67,66.02,63.41,61.33,60.02,59.67,60.64,62.75,65.50,68.23,70.19,70.72,70.54,69.26,66.85,64.36,62.44,61.55,61.58,62.24,62.93,63.60,63.93,63.62,62.61,61.55,60.60,59.81,59.23,58.62,57.89,57.08,56.26,55.46,54.59,53.69,52.75,51.80,50.99,50.51,50.27,50.08,49.95,50.28,51.81,55.08,58.92,60.05,60.13,59.78,58.71,56.61,53.98,51.73,50.90,51.36,52.43,53.73,55.15,56.57,56.97,56.13,54.53,52.93,51.51,50.28,49.26,48.46,47.68,46.86,45.95,44.98,44.05,43.10,42.59,42.56,42.88,42.79,42.61,42.43,42.26,42.01,41.43,40.61,39.87,39.76,39.64,39.55,39.55,39.66,39.74,40.13,40.81,41.70,42.59,43.42,44.27,45.17,46.09,47.03,47.78,48.41,48.91,49.23,49.48,49.67,49.83,50.02,50.24,50.50,50.77,51.02,51.16,50.93,50.56,50.10,49.34,48.29,47.23,46.23,45.27,44.34,43.47,42.59,41.67,40.79,40.09,39.59,39.19,38.77,38.38,37.97,37.53,37.10,36.79,36.72,36.84,37.04,37.17,37.39,37.68,38.06,38.53,39.06,39.60,40.14,40.67,41.17,41.61,41.56,41.08,40.52,39.79,38.77,37.59,36.35,35.11,33.81,32.48,31.17,30.09,29.63,29.32,29.00,28.65,28.30,27.96,27.62,27.30,26.96,26.61,26.24,25.86,25.52,25.17,24.82,24.49,24.18,23.87,23.53,23.18,22.85,22.53,22.19,21.84,21.51,21.19,20.85,20.50,20.17,19.91,19.86,19.79,19.75,19.74,19.71,19.66,19.63,19.59,19.55,19.48,19.39,19.31,19.24,19.16,19.09,19.01,18.95,18.95,18.88,18.80,18.73,18.64,18.57,18.55,18.55,18.57,18.64,18.68,18.73,18.76,18.80,18.84
69.82,71.11,72.69,74.00,74.48,74.61,74.42,73.92,73.03,72.43,72.58,72.72,72.59,73.06,73.34,73.06,72.28,71.29,70.31,69.42,68.72,68.37,68.37,68.66,69.04,69.42,69.83,70.35,70.91,71.39,71.54,71.09,70.28,68.65,65.97,63.27,60.71,58.96,58.37,59.32,61.41,64.11,66.98,69.45,70.36,70.42,69.39,67.08,63.92,61.27,60.29,60.58,61.26,61.95,62.59,63.17,63.44,62.67,61.78,60.91,60.11,59.47,58.78,57.99,57.16,56.35,55.49,54.54,53.57,52.64,51.70,50.76,50.18,49.92,49.75,49.55,49.60,50.40,52.83,58.00,59.73,60.02,59.77,58.67,56.19,53.32,50.96,49.98,50.03,51.00,52.31,53.75,55.26,56.62,56.62,55.45,53.94,52.53,51.14,49.94,49.04,48.25,47.37,46.49,45.63,44.69,43.63,42.62,41.98,41.98,41.77,41.58,41.41,41.23,41.00,40.57,40.15,39.84,39.69,39.54,39.44,39.45,39.58,39.67,39.82,40.31,41.11,41.88,42.67,43.54,44.47,45.40,46.34,47.14,47.77,48.17,48.42,48.65,48.88,49.12,49.39,49.77,50.13,50.42,50.67,50.95,50.87,50.59,50.16,49.50,48.52,47.58,46.69,45.77,44.84,43.97,43.08,42.14,41.22,40.34,39.72,39.30,38.84,38.43,38.00,37.53,37.07,36.62,36.32,36.25,36.39,36.50,36.77,37.08,37.47,38.00,38.55,39.16,39.79,40.40,40.93,41.34,41.30,40.85,40.29,39.43,38.35,37.15,35.91,34.67,33.43,32.19,31.00,30.05,29.61,29.30,28.98,28.61,28.29,27.98,27.67,27.36,27.05,26.74,26.40,26.02,25.65,25.33,24.98,24.63,24.31,24.00,23.68,23.33,22.97,22.65,22.34,21.99,21.63,21.30,20.94,20.60,20.26,19.95,19.90,19.77,19.70,19.68,19.62,19.60,19.59,19.56,19.48,19.41,19.33,19.25,19.18,19.10,19.03,18.96,18.90,18.88,18.81,18.73,18.66,18.58,18.51,18.48,18.48,18.49,18.56,18.63,18.66,18.68,18.74,18.76
69.46,70.22,71.23,72.18,72.60,72.81,72.38,71.48,70.54,69.89,70.23,70.77,71.08,71.64,71.95,72.01,71.72,70.83,69.94,69.12,68.37,67.72,67.23,67.36,67.69,68.04,68.50,69.11,69.80,70.44,70.82,70.69,69.98,68.41,65.84,63.09,60.50,58.44,57.39,58.23,59.81,62.23,65.08,67.76,69.37,69.90,69.18,67.05,63.92,61.03,59.58,59.51,60.39,61.11,61.76,62.35,62.75,62.59,61.97,61.16,60.35,59.67,58.93,58.11,57.25,56.35,55.40,54.45,53.51,52.56,51.52,50.53,49.93,49.66,49.50,49.33,49.38,49.78,51.37,56.39,58.86,59.79,59.72,58.39,55.83,52.93,50.62,49.76,49.65,50.09,51.07,52.56,53.99,55.35,56.29,56.38,55.00,53.56,52.16,50.81,49.63,48.77,47.96,47.15,46.31,45.32,44.26,43.23,42.27,41.48,41.07,40.83,40.61,40.41,40.23,40.04,39.87,39.73,39.62,39.48,39.38,39.36,39.46,39.59,39.74,39.97,40.36,41.07,41.93,42.84,43.77,44.70,45.68,46.47,47.03,47.36,47.59,47.83,48.06,48.33,48.75,49.23,49.69,50.06,50.34,50.59,50.65,50.49,50.16,49.77,48.96,48.05,47.14,46.21,45.28,44.41,43.50,42.53,41.60,40.60,39.85,39.36,38.90,38.45,38.00,37.53,37.07,36.61,36.19,35.87,35.72,35.85,36.13,36.47,36.89,37.44,38.03,38.72,39.43,40.07,40.57,40.97,41.00,40.67,40.20,39.35,38.24,36.99,35.71,34.47,33.23,32.00,30.84,29.97,29.55,29.24,28.93,28.60,28.29,27.98,27.67,27.37,27.05,26.75,26.43,26.10,25.77,25.46,25.14,24.80,24.44,24.12,23.77,23.43,23.09,22.72,22.41,22.09,21.75,21.38,21.05,20.69,20.34,20.05,19.92,19.77,19.67,19.62,19.60,19.55,19.53,19.50,19.43,19.34,19.27,19.19,19.11,19.04,19.01,18.96,18.88,18.82,18.75,18.68,18.59,18.52,18.44,18.38,18.35,18.36,18.38,18.45,18.48,18.48,18.51,18.56
69.05,69.58,70.18,70.72,71.02,71.21,70.84,70.04,69.23,68.92,69.27,69.75,70.12,70.54,70.79,70.94,70.87,70.28,69.54,68.79,68.05,67.31,66.62,66.39,66.42,66.65,67.12,67.77,68.47,69.10,69.44,69.28,68.57,67.16,64.92,62.41,60.07,58.04,56.75,57.19,58.50,60.53,63.07,65.78,67.51,68.38,68.28,66.89,63.93,61.23,59.38,58.62,59.25,60.17,60.95,61.56,61.95,62.10,61.82,61.23,60.50,59.80,58.87,57.94,57.00,56.01,54.98,54.01,53.03,52.03,51.00,50.15,49.63,49.36,49.19,49.08,49.21,49.51,50.60,54.69,57.32,58.88,59.36,57.94,55.59,52.92,50.71,49.71,49.31,49.50,50.22,51.44,52.84,54.22,55.55,56.33,55.63,54.34,52.96,51.60,50.32,49.40,48.61,47.82,46.97,45.97,44.95,43.94,42.83,41.59,40.81,40.43,40.20,40.00,39.85,39.78,39.70,39.60,39.52,39.40,39.29,39.27,39.37,39.50,39.62,39.74,39.92,40.40,41.23,42.16,43.11,44.05,45.04,45.78,46.26,46.53,46.77,47.00,47.28,47.66,48.24,48.76,49.24,49.67,50.02,50.32,50.42,50.34,50.12,49.89,49.32,48.51,47.58,46.66,45.73,44.84,43.91,42.91,41.91,40.86,40.03,39.47,39.00,38.56,38.17,37.77,37.34,36.88,36.41,35.95,35.57,35.41,35.54,35.86,36.33,36.94,37.58,38.28,39.00,39.72,40.25,40.64,40.73,40.54,40.13,39.26,38.10,36.83,35.55,34.28,33.02,31.75,30.60,29.88,29.49,29.18,28.87,28.56,28.26,27.95,27.62,27.29,26.98,26.70,26.41,26.14,25.86,25.61,25.30,24.91,24.46,24.14,23.79,23.47,23.18,22.82,22.48,22.16,21.84,21.48,21.14,20.79,20.44,20.13,19.94,19.77,19.66,19.59,19.56,19.49,19.46,19.44,19.36,19.28,19.20,19.14,19.09,19.02,18.97,18.91,18.84,18.77,18.69,18.61,18.53,18.45,18.38,18.30,18.24,18.22,18.19,18.23,18.27,18.28,18.30,18.37
68.59,69.09,69.44,69.60,69.78,69.89,69.76,69.36,68.77,68.96,69.18,69.36,69.54,69.71,69.87,69.95,69.91,69.67,69.11,68.43,67.73,67.03,66.34,65.70,65.32,65.33,65.67,66.27,66.88,67.38,67.52,66.97,66.20,65.05,63.34,61.31,59.42,57.67,56.32,56.13,57.34,58.99,61.07,63.63,65.12,66.18,66.85,66.53,63.96,61.72,59.60,58.01,57.98,59.05,60.05,60.73,61.10,61.34,61.41,61.11,60.51,59.83,58.65,57.52,56.48,55.41,54.33,53.31,52.28,51.24,50.30,49.71,49.32,49.03,48.83,48.81,49.07,49.45,50.27,53.02,55.45,57.59,58.77,57.33,55.38,53.10,51.04,49.76,49.03,49.14,49.63,50.41,51.79,53.24,54.57,55.58,55.85,54.88,53.61,52.31,51.08,50.13,49.32,48.50,47.62,46.63,45.70,44.70,43.54,42.12,40.89,40.31,40.04,39.88,39.73,39.70,39.61,39.48,39.40,39.32,39.19,39.16,39.28,39.37,39.46,39.58,39.72,39.91,40.60,41.52,42.50,43.44,44.41,45.07,45.47,45.70,45.94,46.19,46.56,47.10,47.81,48.32,48.79,49.24,49.69,50.07,50.17,50.14,50.04,49.88,49.58,48.92,48.03,47.10,46.18,45.24,44.28,43.28,42.23,41.16,40.29,39.64,39.17,38.78,38.48,38.18,37.78,37.32,36.85,36.34,35.79,35.19,35.03,35.27,35.78,36.46,37.15,37.81,38.54,39.34,39.98,40.36,40.50,40.42,40.04,39.12,37.91,36.63,35.38,34.07,32.77,31.47,30.33,29.77,29.41,29.10,28.79,28.49,28.19,27.88,27.55,27.20,26.89,26.64,26.40,26.16,25.93,25.77,25.48,25.04,24.46,24.08,23.75,23.46,23.20,22.88,22.53,22.20,21.90,21.57,21.21,20.88,20.54,20.19,19.95,19.77,19.66,19.58,19.50,19.43,19.40,19.38,19.30,19.22,19.15,19.10,19.07,19.00,18.93,18.86,18.77,18.70,18.63,18.55,18.46,18.39,18.31,18.23,18.16,18.09,18.02,18.01,18.05,18.09,18.10,18.17
68.20,68.56,68.83,69.03,69.32,69.44,69.40,69.11,68.60,68.86,68.97,69.04,69.17,69.23,69.33,69.38,69.35,69.20,68.66,68.00,67.32,66.66,65.97,65.28,64.73,64.36,64.05,64.22,64.55,64.88,64.88,63.46,62.55,61.88,61.02,59.84,58.48,57.11,55.82,54.92,55.82,57.45,59.41,61.47,62.82,63.97,64.98,65.41,64.11,62.33,60.26,58.24,56.93,57.44,58.53,59.58,60.30,60.62,60.74,60.62,60.22,59.50,58.25,56.92,55.69,54.61,53.58,52.53,51.48,50.53,49.88,49.42,49.04,48.71,48.53,48.67,49.00,49.36,49.97,51.74,54.25,56.66,57.98,56.59,54.72,52.95,51.31,49.84,49.05,48.84,49.07,49.78,50.93,52.34,53.59,54.62,55.36,55.05,54.11,52.96,51.89,50.94,50.06,49.17,48.27,47.38,46.54,45.48,44.17,42.67,41.27,40.37,39.92,39.81,39.66,39.59,39.51,39.40,39.28,39.20,39.10,39.05,39.11,39.19,39.30,39.45,39.61,39.81,40.25,41.05,42.05,43.01,43.87,44.35,44.65,44.88,45.12,45.47,46.01,46.67,47.33,47.82,48.28,48.74,49.20,49.64,49.82,49.86,49.81,49.71,49.57,49.16,48.48,47.55,46.62,45.62,44.63,43.67,42.74,41.78,40.86,40.09,39.55,39.23,38.94,38.62,38.22,37.77,37.27,36.71,36.09,35.36,34.77,34.75,35.20,35.85,36.54,37.29,38.09,38.94,39.74,40.16,40.30,40.25,39.94,38.80,37.52,36.27,35.02,33.72,32.41,31.11,30.04,29.62,29.30,28.96,28.63,28.37,28.11,27.85,27.59,27.30,26.99,26.74,26.51,26.28,26.06,25.93,25.81,25.46,24.70,24.03,23.59,23.27,22.98,22.68,22.39,22.12,21.85,21.54,21.25,20.95,20.61,20.24,19.96,19.77,19.66,19.57,19.45,19.41,19.37,19.30,19.24,19.21,19.14,19.08,19.02,18.95,18.86,18.79,18.71,18.63,18.56,18.48,18.41,18.32,18.25,18.18,18.09,18.02,17.94,17.89,17.85,17.85,17.90,17.93
67.81,68.09,68.36,68.66,69.01,69.11,69.08,68.89,68.52,68.66,68.69,68.71,68.81,68.80,68.86,68.88,68.85,68.75,68.22,67.56,66.92,66.35,65.74,65.14,64.53,63.88,63.11,62.78,62.66,62.63,62.37,60.77,59.95,59.60,59.20,58.54,57.50,56.34,55.11,53.86,54.11,55.47,57.26,58.99,60.82,62.19,63.31,64.05,63.70,62.41,60.65,58.57,56.40,55.99,56.96,58.21,59.09,59.61,59.94,60.01,59.75,59.00,57.74,56.34,55.00,53.83,52.78,51.73,50.76,49.98,49.52,49.12,48.73,48.40,48.28,48.54,48.87,49.21,49.66,50.70,53.19,55.81,57.27,55.77,53.80,52.26,51.00,49.73,48.99,48.53,48.59,49.25,50.19,51.47,52.63,53.68,54.67,55.05,54.58,53.71,52.73,51.80,50.88,49.95,49.04,48.19,47.35,46.19,44.80,43.33,41.80,40.55,39.85,39.75,39.62,39.52,39.42,39.33,39.19,39.09,39.00,38.95,38.98,39.03,39.14,39.31,39.52,39.75,40.01,40.67,41.61,42.56,43.25,43.59,43.82,44.06,44.40,44.90,45.56,46.26,46.81,47.30,47.76,48.21,48.67,49.13,49.39,49.48,49.45,49.40,49.34,49.16,48.75,48.01,47.12,46.14,45.18,44.30,43.45,42.56,41.67,40.85,40.26,39.87,39.49,39.09,38.67,38.21,37.69,37.08,36.37,35.57,34.73,34.40,34.61,35.28,36.01,36.81,37.63,38.44,39.28,39.70,39.81,39.70,39.35,38.19,36.91,35.63,34.36,33.09,31.82,30.67,29.82,29.51,29.22,28.90,28.59,28.36,28.13,27.90,27.66,27.42,27.14,26.88,26.64,26.41,26.19,26.11,26.09,25.85,25.13,24.28,23.63,23.16,22.79,22.48,22.20,21.94,21.67,21.39,21.15,20.87,20.56,20.24,19.96,19.77,19.65,19.54,19.42,19.38,19.32,19.25,19.20,19.18,19.11,19.04,18.95,18.88,18.80,18.73,18.65,18.57,18.52,18.45,18.37,18.29,18.19,18.11,18.03,17.95,17.88,17.80,17.73,17.68,17.71,17.71
67.43,67.71,68.05,68.42,68.77,68.80,68.73,68.64,68.51,68.41,68.38,68.41,68.46,68.41,68.45,68.44,68.39,68.32,67.81,67.20,66.63,66.16,65.72,65.29,64.70,63.93,63.03,62.20,61.51,60.91,60.26,59.30,58.84,58.56,58.13,57.50,56.52,55.37,54.15,53.01,52.29,53.02,54.49,56.13,59.04,60.83,61.92,62.56,62.62,61.83,60.55,58.78,56.40,54.85,55.45,56.64,57.42,58.26,58.99,59.30,59.10,58.37,57.14,55.82,54.45,53.09,51.97,50.95,50.14,49.59,49.19,48.80,48.42,48.12,48.08,48.38,48.67,48.98,49.38,49.92,52.20,54.97,56.65,54.87,52.63,51.04,50.06,49.40,48.77,48.23,48.20,48.80,49.59,50.64,51.73,52.80,53.86,54.83,54.96,54.46,53.57,52.69,51.77,50.85,49.94,49.07,48.13,46.87,45.46,44.12,42.48,40.85,39.86,39.71,39.62,39.48,39.38,39.27,39.13,39.05,38.92,38.85,38.90,38.91,38.98,39.16,39.45,39.67,39.86,40.37,41.17,42.06,42.49,42.76,42.99,43.29,43.80,44.49,45.20,45.81,46.21,46.73,47.19,47.62,48.09,48.56,48.89,49.02,48.96,48.94,48.91,48.87,48.74,48.38,47.64,46.81,45.99,45.19,44.35,43.50,42.69,41.94,41.33,40.74,40.15,39.60,39.12,38.66,38.13,37.44,36.62,35.77,34.92,34.22,34.02,34.76,35.57,36.36,37.11,37.82,38.51,38.90,38.92,38.66,38.17,37.22,36.01,34.69,33.36,32.16,31.02,30.16,29.70,29.45,29.21,28.96,28.72,28.49,28.26,28.02,27.79,27.56,27.32,27.04,26.76,26.53,26.33,26.28,26.28,26.15,25.72,24.86,23.94,23.19,22.70,22.36,22.00,21.67,21.38,21.14,20.90,20.61,20.36,20.17,19.94,19.77,19.63,19.49,19.41,19.33,19.25,19.20,19.18,19.12,19.05,18.98,18.89,18.81,18.74,18.67,18.59,18.52,18.50,18.45,18.37,18.27,18.14,18.05,17.97,17.89,17.81,17.73,17.66,17.59,17.54,17.53
67.30,67.65,68.04,68.41,68.73,68.77,68.74,68.69,68.62,68.59,68.55,68.52,68.51,68.48,68.42,68.38,68.34,68.22,67.83,67.36,66.89,66.47,66.00,65.42,64.74,63.94,63.02,62.05,61.16,60.34,59.49,58.58,58.03,57.60,57.05,56.39,55.47,54.37,53.22,52.20,51.29,51.25,51.79,52.91,55.97,58.38,60.05,61.04,61.32,60.98,59.90,58.16,55.87,53.89,54.05,55.08,56.00,56.88,57.64,58.20,58.36,57.67,56.47,55.15,53.82,52.46,51.23,50.34,49.70,49.26,48.87,48.48,48.12,47.86,47.87,48.12,48.44,48.78,49.17,49.64,51.24,53.80,55.74,53.64,51.42,50.13,49.47,48.92,48.35,47.90,47.93,48.54,49.23,50.05,51.01,52.05,53.09,54.13,54.42,54.22,53.83,53.46,52.66,51.76,50.87,49.98,49.18,47.95,46.43,44.86,43.18,41.35,40.11,39.77,39.67,39.56,39.45,39.33,39.22,39.09,38.95,38.82,38.75,38.78,38.85,39.02,39.27,39.51,39.75,40.19,40.79,41.42,41.70,41.90,42.18,42.65,43.34,44.11,44.65,44.94,45.12,45.71,46.31,46.88,47.46,47.98,48.36,48.53,48.47,48.34,48.18,48.00,47.88,47.85,47.75,47.43,46.87,46.09,45.29,44.55,43.83,43.13,42.50,41.81,41.08,40.33,39.64,39.11,38.45,37.69,36.87,36.02,35.09,34.20,33.70,34.13,34.84,35.55,36.22,36.85,37.41,37.67,37.58,37.23,36.72,35.88,34.76,33.52,32.28,31.11,30.32,29.88,29.73,29.54,29.31,29.08,28.85,28.61,28.38,28.15,27.92,27.69,27.45,27.20,26.93,26.67,26.50,26.47,26.47,26.42,26.19,25.46,24.51,23.62,22.89,22.33,21.91,21.54,21.21,20.93,20.66,20.36,20.13,20.02,19.87,19.75,19.62,19.47,19.36,19.27,19.20,19.14,19.13,19.06,18.98,18.91,18.83,18.75,18.71,18.66,18.58,18.50,18.46,18.39,18.31,18.23,18.12,18.04,17.94,17.82,17.75,17.68,17.59,17.52,17.45,17.40
67.18,67.70,68.21,68.58,68.86,68.92,68.92,68.91,68.86,68.91,68.87,68.80,68.75,68.74,68.63,68.55,68.51,68.34,68.05,67.70,67.29,66.82,66.24,65.51,64.74,63.94,63.01,62.02,61.05,60.10,59.12,58.11,57.38,56.75,56.07,55.33,54.45,53.45,52.39,51.48,50.61,50.09,49.95,50.51,52.91,55.51,57.61,58.93,59.54,59.59,58.72,57.09,55.05,52.93,52.76,53.61,54.62,55.47,56.21,56.97,57.49,57.04,55.87,54.53,53.20,51.89,50.59,49.84,49.37,48.98,48.59,48.20,47.86,47.63,47.63,47.85,48.20,48.60,49.00,49.47,50.39,52.57,54.65,52.82,50.70,49.60,49.13,48.60,48.01,47.58,47.65,48.27,48.91,49.59,50.45,51.42,52.40,53.34,53.59,53.55,53.57,53.64,53.13,52.47,51.77,50.89,50.21,49.14,47.70,46.02,44.26,42.31,40.78,40.03,39.78,39.66,39.54,39.42,39.34,39.19,39.02,38.83,38.62,38.62,38.69,38.86,39.10,39.32,39.59,39.95,40.36,40.71,40.88,41.08,41.48,42.13,42.96,43.70,44.00,43.94,43.89,44.53,45.25,45.95,46.64,47.24,47.75,47.93,47.78,47.53,47.22,46.91,46.75,46.97,47.40,47.57,47.36,46.80,46.23,45.67,45.03,44.33,43.66,42.90,42.05,41.15,40.27,39.57,38.78,37.95,37.12,36.25,35.27,34.27,33.55,33.52,34.01,34.61,35.22,35.77,36.20,36.32,36.14,35.74,35.17,34.38,33.38,32.28,31.19,30.22,29.78,29.67,29.71,29.60,29.41,29.20,28.97,28.74,28.51,28.28,28.05,27.81,27.58,27.35,27.09,26.82,26.69,26.66,26.66,26.66,26.57,26.05,25.14,24.17,23.27,22.47,21.91,21.47,21.09,20.78,20.46,20.15,19.95,19.87,19.80,19.71,19.60,19.45,19.32,19.24,19.20,19.16,19.08,19.00,18.93,18.85,18.79,18.71,18.69,18.63,18.55,18.48,18.41,18.32,18.25,18.18,18.09,18.02,17.91,17.78,17.71,17.62,17.53,17.45,17.38,17.30
66.98,67.85,68.59,68.95,69.25,69.31,69.31,69.30,69.29,69.30,69.25,69.20,69.19,69.19,69.12,69.04,68.95,68.78,68.50,68.14,67.66,67.01,66.28,65.51,64.74,63.94,63.01,62.02,61.02,59.99,58.88,57.80,56.92,56.12,55.29,54.41,53.54,52.66,51.77,50.92,50.22,49.90,49.85,50.02,50.51,52.33,54.19,55.58,56.82,57.20,56.68,55.49,53.86,51.88,51.61,52.30,53.22,54.01,54.78,55.61,56.39,56.60,55.51,54.09,52.69,51.38,50.13,49.55,49.17,48.79,48.40,48.02,47.67,47.41,47.34,47.63,48.01,48.42,48.87,49.27,49.77,51.35,53.34,53.08,51.05,49.73,49.14,48.63,47.93,47.31,47.27,47.90,48.58,49.28,50.07,50.96,51.87,52.59,52.63,52.47,52.49,52.62,52.69,52.74,52.59,51.77,51.05,50.36,49.46,48.05,46.16,44.13,42.20,40.69,40.00,39.75,39.64,39.55,39.46,39.32,39.12,38.87,38.60,38.41,38.48,38.69,38.96,39.13,39.31,39.54,39.77,39.90,40.00,40.37,40.99,41.80,42.63,43.21,43.23,42.87,42.65,43.26,43.98,44.70,45.45,46.19,46.96,47.11,46.64,46.33,45.97,45.63,45.51,45.81,46.25,46.70,47.02,47.13,47.13,46.85,46.27,45.52,44.76,43.93,43.00,42.04,41.09,40.05,39.20,38.33,37.37,36.45,35.46,34.49,33.63,33.03,33.10,33.59,34.16,34.62,34.94,34.92,34.73,34.34,33.56,32.77,31.92,30.99,30.13,29.76,29.54,29.48,29.55,29.58,29.45,29.29,29.10,28.87,28.64,28.41,28.17,27.94,27.71,27.48,27.24,27.02,26.88,26.85,26.85,26.85,26.81,26.59,25.78,24.81,23.88,22.92,22.05,21.44,21.03,20.71,20.34,20.06,19.88,19.80,19.73,19.66,19.54,19.39,19.31,19.29,19.36,19.33,19.04,18.94,18.86,18.81,18.79,18.71,18.64,18.57,18.49,18.41,18.34,18.27,18.19,18.11,18.03,17.95,17.87,17.78,17.70,17.57,17.46,17.39,17.31,17.23
67.41,68.19,68.84,69.25,69.58,69.64,69.64,69.64,69.64,69.68,69.74,69.81,69.84,69.67,69.60,69.54,69.45,69.27,68.96,68.47,67.84,67.09,66.29,65.51,64.74,63.94,63.01,61.99,60.95,59.88,58.80,57.97,57.09,56.20,55.34,54.45,53.57,52.68,51.78,50.88,50.15,49.85,49.80,49.81,49.84,50.70,51.66,52.54,53.79,54.47,54.31,53.45,52.11,50.86,50.64,51.10,51.87,52.65,53.48,54.39,55.30,55.91,55.18,53.91,52.49,51.14,49.99,49.41,49.02,48.60,48.21,47.83,47.46,47.17,47.07,47.39,47.80,48.22,48.64,49.03,49.45,50.55,52.15,52.95,51.70,50.38,49.44,48.84,48.05,47.30,47.04,47.43,48.08,48.80,49.55,50.33,51.13,51.78,51.77,51.51,51.37,51.43,51.69,51.97,52.13,51.91,51.60,51.10,50.38,49.36,47.94,46.03,43.97,42.07,40.87,40.09,39.75,39.67,39.58,39.38,39.17,38.93,38.63,38.36,38.31,38.43,38.65,38.84,39.00,39.18,39.34,39.42,39.57,39.95,40.58,41.44,42.28,42.51,42.26,41.79,41.51,42.02,42.75,43.59,44.55,45.54,46.37,46.34,45.56,45.10,44.73,44.41,44.30,44.66,45.11,45.57,45.95,46.17,46.35,46.33,46.16,45.95,45.66,44.88,43.89,42.85,41.78,40.61,39.62,38.66,37.68,36.74,35.75,34.79,33.89,33.10,32.67,32.72,33.00,33.36,33.59,33.49,33.28,32.89,32.02,31.29,30.71,30.17,29.65,29.48,29.34,29.29,29.38,29.48,29.43,29.31,29.15,28.99,28.76,28.53,28.30,28.07,27.84,27.61,27.37,27.17,27.06,27.05,27.05,27.05,27.03,26.96,26.32,25.45,24.50,23.51,22.57,21.76,21.11,20.66,20.27,20.02,19.87,19.79,19.71,19.61,19.55,19.57,19.69,19.92,20.00,19.82,19.37,18.96,18.82,18.78,18.74,18.66,18.59,18.50,18.43,18.36,18.27,18.20,18.13,18.05,17.96,17.89,17.81,17.73,17.66,17.54,17.45,17.36,17.25,17.18
68.39,69.12,69.75,70.31,70.82,71.08,71.23,71.33,71.39,71.38,71.24,71.02,70.71,70.22,70.13,70.13,70.06,69.80,69.40,68.74,67.97,67.20,66.37,65.62,64.93,64.22,63.36,62.27,61.14,60.01,58.94,58.37,57.53,56.59,55.72,54.84,53.92,52.98,52.01,51.01,50.19,49.85,49.77,49.71,49.76,49.81,49.89,50.18,51.14,51.91,52.02,51.48,50.48,50.02,49.90,50.12,50.70,51.39,52.26,53.22,54.22,55.09,54.87,53.84,52.43,51.04,49.97,49.37,48.92,48.48,48.06,47.66,47.25,46.92,46.82,47.13,47.56,47.99,48.39,48.80,49.25,49.98,51.12,52.58,52.26,51.06,49.83,49.07,48.23,47.38,46.86,46.91,47.50,48.23,48.95,49.64,50.31,50.94,50.96,50.65,50.34,50.28,50.55,50.90,51.25,51.66,51.84,51.53,50.94,50.28,49.42,47.78,45.74,43.68,42.10,40.82,40.13,39.89,39.70,39.44,39.22,39.00,38.70,38.38,38.17,38.14,38.28,38.49,38.66,38.81,38.95,39.08,39.31,39.66,40.23,41.05,41.88,41.75,41.27,40.77,40.50,40.91,41.68,42.67,43.84,45.05,45.85,45.64,44.60,43.92,43.51,43.19,43.10,43.50,43.94,44.33,44.62,44.79,45.01,45.18,45.46,45.84,46.14,45.62,44.67,43.56,42.38,41.13,40.00,38.94,37.97,37.03,36.06,35.11,34.22,33.41,32.63,32.22,32.13,32.26,32.27,32.10,31.87,31.49,30.68,30.07,29.77,29.57,29.36,29.27,29.14,29.11,29.21,29.34,29.37,29.30,29.17,29.07,28.87,28.66,28.43,28.20,27.96,27.73,27.50,27.31,27.25,27.23,27.23,27.23,27.23,27.23,26.81,26.08,25.13,24.14,23.20,22.24,21.34,20.71,20.24,19.99,19.87,19.79,19.71,19.59,19.63,19.85,20.21,20.69,20.74,20.41,19.82,19.09,18.83,18.75,18.68,18.60,18.52,18.45,18.36,18.29,18.21,18.13,18.05,17.98,17.91,17.82,17.75,17.68,17.59,17.52,17.44,17.34,17.21,17.11
70.57,71.92,73.10,74.13,75.32,76.44,77.27,77.82,78.07,77.72,76.16,74.09,72.15,70.94,70.77,70.97,71.03,70.41,69.74,68.97,68.17,67.45,66.67,66.11,65.76,65.50,64.94,63.68,62.31,60.97,59.65,59.01,58.19,57.24,56.27,55.30,54.33,53.28,52.19,51.14,50.22,49.85,49.76,49.64,49.64,49.65,49.69,49.82,50.14,50.38,50.41,50.26,49.97,49.80,49.71,49.78,50.06,50.38,51.17,52.14,53.14,54.09,54.56,53.86,52.50,51.15,50.05,49.43,49.00,48.57,48.07,47.57,47.09,46.72,46.57,46.88,47.28,47.70,48.15,48.65,49.12,49.71,50.58,51.83,52.12,51.33,50.15,49.22,48.31,47.40,46.64,46.30,46.86,47.56,48.23,48.85,49.44,50.05,50.20,50.02,49.71,49.48,49.64,49.98,50.42,50.88,51.31,51.44,51.22,50.66,50.08,48.80,47.08,45.24,43.83,42.55,41.38,40.40,39.84,39.59,39.34,39.08,38.81,38.45,38.12,37.91,37.89,38.06,38.21,38.37,38.55,38.82,39.15,39.53,40.01,40.65,41.28,41.03,40.47,39.95,39.77,40.19,41.09,42.22,43.44,44.67,45.35,45.06,43.93,42.94,42.31,41.94,41.91,42.34,42.70,42.99,43.23,43.44,43.62,43.87,44.24,44.74,45.38,45.78,45.20,44.05,42.77,41.47,40.21,39.10,38.16,37.23,36.34,35.43,34.59,33.98,33.41,32.89,32.34,31.77,31.19,30.88,30.65,30.36,29.92,29.62,29.43,29.24,29.04,29.00,28.92,28.94,29.07,29.16,29.23,29.23,29.16,29.03,28.91,28.75,28.56,28.32,28.09,27.86,27.63,27.45,27.43,27.42,27.42,27.42,27.42,27.42,27.27,26.70,25.72,24.77,23.84,22.87,21.91,21.07,20.32,19.99,19.87,19.79,19.71,19.67,19.85,20.28,20.80,21.25,21.29,20.96,20.28,19.52,18.98,18.69,18.61,18.54,18.45,18.38,18.30,18.23,18.15,18.07,17.99,17.91,17.84,17.77,17.69,17.61,17.53,17.45,17.38,17.29,17.19,17.06
73.95,75.50,76.79,77.83,79.02,80.17,80.96,81.23,80.75,79.84,77.68,75.01,72.65,71.62,71.63,71.91,71.93,71.09,70.30,69.52,68.71,67.94,67.51,67.23,67.12,67.12,66.89,65.71,64.33,62.79,60.92,59.65,58.61,57.67,56.82,55.99,55.20,54.16,52.91,51.63,50.44,49.91,49.76,49.64,49.58,49.54,49.55,49.60,49.67,49.71,49.71,49.69,49.67,49.61,49.55,49.58,49.74,49.91,50.41,51.19,52.17,53.11,53.83,53.55,52.56,51.29,50.13,49.52,49.08,48.61,48.08,47.56,47.06,46.60,46.33,46.59,46.99,47.42,47.90,48.40,48.88,49.40,50.09,51.03,51.62,51.28,50.38,49.37,48.45,47.55,46.70,46.10,46.30,46.91,47.59,48.25,48.85,49.44,49.61,49.48,49.20,48.90,48.99,49.34,49.82,50.29,50.79,51.09,51.08,50.75,50.41,49.59,48.23,46.49,45.10,43.86,42.56,41.28,40.33,39.82,39.49,39.21,38.90,38.52,38.14,37.82,37.65,37.71,37.84,38.00,38.21,38.55,38.91,39.28,39.72,40.19,40.62,40.33,39.81,39.34,39.22,39.73,40.67,41.82,43.06,44.28,44.86,44.49,43.33,42.20,41.31,40.86,40.81,41.12,41.41,41.63,41.84,42.07,42.26,42.56,43.04,43.67,44.49,45.40,45.26,44.34,43.03,41.72,40.38,39.27,38.42,37.64,36.88,36.09,35.37,34.86,34.39,33.80,33.02,31.99,30.78,30.31,30.03,29.73,29.44,29.23,29.09,28.93,28.77,28.74,28.71,28.76,28.89,28.98,29.08,29.14,29.12,29.00,28.89,28.77,28.62,28.42,28.21,27.99,27.77,27.62,27.61,27.61,27.61,27.61,27.61,27.61,27.58,27.17,26.33,25.41,24.45,23.49,22.53,21.60,20.72,20.24,20.01,19.90,19.80,19.88,20.19,20.71,21.31,21.79,21.81,21.44,20.73,19.99,19.33,18.89,18.74,18.63,18.52,18.40,18.28,18.20,18.09,18.00,17.93,17.86,17.77,17.70,17.63,17.55,17.46,17.39,17.31,17.23,17.15,17.03
78.03,79.39,80.42,81.19,81.98,82.55,82.69,82.12,80.56,79.08,76.96,74.56,72.57,72.30,72.64,72.92,72.77,71.83,71.02,70.29,69.48,68.65,68.70,68.86,69.05,69.25,69.26,68.18,66.81,65.08,62.59,60.44,59.05,58.11,57.47,56.90,56.39,55.45,54.03,52.47,50.96,50.13,49.80,49.69,49.55,49.46,49.41,49.42,49.49,49.56,49.55,49.50,49.48,49.42,49.40,49.46,49.61,49.77,49.90,50.41,51.28,52.15,52.80,52.94,52.51,51.43,50.23,49.62,49.16,48.63,48.09,47.59,47.08,46.54,46.11,46.28,46.68,47.14,47.61,48.08,48.55,49.05,49.61,50.26,50.91,50.99,50.48,49.46,48.58,47.72,46.86,46.11,45.82,46.31,47.04,47.78,48.45,49.02,49.14,49.00,48.75,48.45,48.51,48.85,49.36,49.83,50.29,50.57,50.67,50.63,50.49,50.12,49.11,47.44,45.99,44.75,43.51,42.23,40.98,40.11,39.67,39.36,38.98,38.59,38.20,37.81,37.50,37.41,37.51,37.67,37.91,38.28,38.61,38.97,39.34,39.70,39.91,39.65,39.23,38.84,38.80,39.42,40.34,41.43,42.66,43.87,44.38,43.98,42.82,41.67,40.56,40.01,39.90,39.98,40.18,40.36,40.53,40.75,40.97,41.31,41.90,42.70,43.62,44.72,45.06,44.53,43.23,41.95,40.61,39.54,38.81,38.24,37.64,37.00,36.42,35.94,35.48,34.84,33.93,32.60,30.84,30.14,29.76,29.40,29.11,28.87,28.75,28.65,28.53,28.50,28.50,28.57,28.70,28.79,28.92,29.03,29.06,28.98,28.85,28.74,28.63,28.47,28.31,28.11,27.93,27.81,27.81,27.81,27.81,27.81,27.81,27.81,27.80,27.56,26.95,26.04,25.05,24.09,23.16,22.23,21.32,20.70,20.35,20.22,20.09,20.26,20.66,21.22,21.82,22.35,22.33,21.88,21.18,20.48,19.79,19.29,19.03,18.87,18.71,18.49,18.29,18.19,18.05,17.95,17.88,17.80,17.72,17.64,17.56,17.49,17.41,17.34,17.26,17.18,17.11,17.02
81.94,82.61,83.08,83.56,84.19,83.90,82.63,80.91,79.46,78.10,76.43,74.45,72.72,73.10,73.74,73.92,73.53,72.68,71.86,71.11,70.39,69.78,69.96,71.00,72.24,73.10,72.64,71.02,69.13,67.05,64.50,62.10,60.45,59.34,58.63,58.12,57.69,56.82,55.47,53.91,52.40,50.97,49.98,49.77,49.61,49.47,49.35,49.29,49.35,49.39,49.39,49.35,49.30,49.28,49.27,49.33,49.48,49.64,49.73,49.98,50.45,51.10,51.60,51.89,51.91,51.49,50.40,49.73,49.22,48.68,48.14,47.58,47.00,46.42,45.95,45.92,46.25,46.72,47.19,47.70,48.17,48.65,49.15,49.66,50.20,50.42,50.17,49.33,48.44,47.54,46.63,45.84,45.48,45.92,46.63,47.39,48.06,48.63,48.72,48.55,48.30,48.01,48.06,48.38,48.86,49.33,49.75,50.03,50.20,50.28,50.25,49.99,49.20,47.83,46.42,45.04,43.69,42.42,41.37,40.53,39.93,39.49,39.10,38.72,38.29,37.85,37.42,37.08,37.09,37.30,37.59,37.97,38.34,38.64,38.92,39.17,39.24,38.99,38.64,38.37,38.45,39.11,39.97,40.97,42.15,43.28,44.00,43.77,42.65,41.50,40.51,39.92,39.60,39.41,39.50,39.61,39.70,39.80,39.98,40.29,40.94,41.92,43.09,44.33,44.98,44.74,43.51,42.38,41.25,40.32,39.66,39.20,38.70,38.13,37.54,37.03,36.56,35.86,34.70,32.99,31.16,30.04,29.37,28.99,28.78,28.55,28.45,28.43,28.42,28.33,28.34,28.41,28.51,28.60,28.74,28.85,28.91,28.92,28.83,28.71,28.59,28.48,28.33,28.20,28.08,28.00,28.00,28.00,28.00,28.00,28.00,28.00,28.00,27.92,27.58,26.67,25.69,24.73,23.79,22.82,21.98,21.49,21.27,21.21,21.12,21.18,21.50,22.05,22.61,23.07,22.90,22.31,21.57,20.87,20.25,19.79,19.51,19.34,19.06,18.68,18.32,18.15,18.03,17.95,17.87,17.79,17.71,17.64,17.56,17.48,17.41,17.33,17.25,17.18,17.10,17.02
85.43,85.65,85.74,85.73,85.35,83.84,81.68,79.59,78.33,77.11,75.68,74.19,73.16,73.97,74.84,74.94,74.31,73.53,72.72,71.96,71.31,71.04,71.90,73.66,75.64,76.96,75.93,73.79,71.49,69.19,66.79,64.51,62.71,61.26,60.16,59.46,59.01,58.23,57.00,55.49,53.99,51.93,50.20,49.82,49.64,49.48,49.33,49.21,49.23,49.22,49.21,49.19,49.14,49.11,49.11,49.16,49.30,49.45,49.55,49.66,49.87,50.26,50.60,50.91,51.19,51.25,50.46,49.81,49.25,48.72,48.17,47.56,46.96,46.38,45.88,45.60,45.82,46.27,46.74,47.26,47.75,48.23,48.69,49.15,49.62,49.87,49.76,49.09,48.19,47.27,46.34,45.52,45.16,45.56,46.24,46.98,47.68,48.25,48.30,48.10,47.85,47.54,47.60,47.92,48.38,48.81,49.17,49.44,49.64,49.73,49.72,49.59,49.05,47.98,46.58,45.15,43.82,42.67,41.75,40.92,40.19,39.61,39.20,38.79,38.32,37.83,37.34,36.86,36.76,36.94,37.26,37.62,37.94,38.20,38.42,38.60,38.64,38.40,38.09,37.90,38.13,38.80,39.60,40.52,41.59,42.59,43.43,43.47,42.65,41.61,40.76,40.12,39.63,39.26,39.13,39.06,39.02,39.03,39.21,39.55,40.23,41.30,42.67,43.94,44.71,44.78,43.98,43.02,42.07,41.26,40.64,40.22,39.77,39.24,38.68,38.14,37.65,36.73,35.26,33.32,31.52,29.84,28.94,28.70,28.50,28.42,28.39,28.42,28.46,28.35,28.33,28.33,28.36,28.43,28.55,28.67,28.76,28.82,28.79,28.68,28.56,28.45,28.32,28.22,28.16,28.16,28.19,28.19,28.19,28.19,28.19,28.19,28.19,28.20,28.06,27.29,26.32,25.36,24.41,23.45,22.75,22.40,22.27,22.27,22.22,22.19,22.42,22.91,23.45,23.70,23.40,22.75,21.99,21.31,20.77,20.37,20.10,19.88,19.48,18.97,18.50,18.21,18.07,17.98,17.90,17.82,17.72,17.64,17.56,17.48,17.41,17.33,17.25,17.16,17.07,16.99
88.36,88.48,88.37,87.58,85.29,82.36,80.07,78.50,77.33,76.16,74.76,73.84,73.97,74.93,75.92,75.95,75.14,74.36,73.58,72.81,72.23,72.39,74.48,76.67,78.90,80.39,78.84,76.39,73.87,71.51,69.39,67.47,65.58,63.71,61.99,60.89,60.36,59.68,58.62,57.17,55.67,52.91,50.40,49.84,49.64,49.49,49.34,49.20,49.13,49.07,49.03,49.03,49.01,48.94,48.92,48.96,49.05,49.19,49.28,49.40,49.55,49.69,49.86,50.12,50.44,50.67,50.36,49.82,49.24,48.70,48.16,47.55,46.98,46.44,45.89,45.34,45.42,45.83,46.29,46.76,47.28,47.77,48.24,48.70,49.17,49.40,49.30,48.74,47.88,46.96,46.02,45.21,44.84,45.21,45.84,46.55,47.29,47.86,47.88,47.65,47.39,47.05,47.13,47.47,47.91,48.30,48.56,48.80,48.96,48.94,48.87,48.93,48.71,47.93,46.54,45.15,44.03,43.10,42.17,41.26,40.39,39.70,39.24,38.78,38.27,37.73,37.21,36.75,36.50,36.61,36.92,37.21,37.40,37.62,37.82,37.98,38.10,37.89,37.58,37.44,37.84,38.50,39.25,40.09,41.00,41.82,42.65,43.02,42.75,41.94,41.21,40.54,39.94,39.48,39.07,38.70,38.46,38.42,38.64,39.10,39.81,40.84,42.31,43.44,44.16,44.56,44.55,43.77,42.99,42.30,41.71,41.24,40.77,40.28,39.79,39.26,38.73,37.47,35.70,33.72,31.98,29.69,28.59,28.59,28.36,28.51,28.59,28.61,28.65,28.59,28.47,28.34,28.25,28.32,28.38,28.50,28.63,28.70,28.70,28.65,28.54,28.41,28.31,28.18,28.18,28.29,28.36,28.38,28.38,28.38,28.38,28.38,28.38,28.41,28.36,27.87,26.96,26.00,25.05,24.12,23.63,23.39,23.29,23.29,23.29,23.24,23.37,23.76,24.27,24.23,23.82,23.19,22.44,21.81,21.36,21.03,20.77,20.45,19.90,19.33,18.82,18.41,18.17,18.05,17.97,17.87,17.73,17.64,17.56,17.48,17.41,17.32,17.25,17.15,17.02,16.93
90.16,89.95,88.94,86.83,83.72,80.93,79.05,77.76,76.53,75.40,74.86,74.84,75.31,76.13,76.97,76.89,76.00,75.15,74.37,73.59,73.18,73.75,75.91,78.18,80.48,82.01,80.55,78.20,75.71,73.29,71.00,68.89,66.85,64.91,63.25,62.30,61.80,61.21,60.34,59.26,58.02,54.02,50.20,49.78,49.63,49.52,49.41,49.29,49.17,49.09,49.01,48.93,48.88,48.81,48.78,48.80,48.84,48.95,49.03,49.13,49.24,49.36,49.52,49.71,49.94,50.14,50.05,49.65,49.12,48.55,48.00,47.43,46.88,46.34,45.79,45.18,45.13,45.42,45.84,46.31,46.80,47.30,47.80,48.26,48.73,48.95,48.83,48.29,47.57,46.69,45.76,44.94,44.58,44.93,45.51,46.16,46.91,47.44,47.44,47.20,46.91,46.58,46.65,46.97,47.40,47.69,47.90,48.11,48.17,47.88,47.65,47.77,47.89,47.63,46.53,45.41,44.36,43.38,42.40,41.39,40.46,39.69,39.15,38.64,38.07,37.50,36.97,36.48,36.13,36.16,36.41,36.62,36.78,37.00,37.19,37.36,37.53,37.32,37.02,36.93,37.51,38.22,38.95,39.69,40.44,41.17,41.88,42.34,42.39,41.99,41.50,40.92,40.33,39.78,39.27,38.73,38.22,37.91,38.12,38.70,39.45,40.45,41.93,42.64,43.18,43.69,44.03,43.91,43.75,43.38,42.77,42.17,41.57,41.03,40.54,40.08,39.64,38.61,37.14,35.29,33.16,30.77,29.41,29.04,28.78,28.84,28.86,28.81,28.76,28.72,28.60,28.46,28.36,28.31,28.25,28.32,28.45,28.53,28.62,28.59,28.50,28.38,28.27,28.15,28.18,28.33,28.44,28.54,28.57,28.57,28.57,28.57,28.57,28.59,28.59,28.43,27.60,26.64,25.70,24.82,24.48,24.36,24.31,24.31,24.31,24.29,24.37,24.59,24.92,24.72,24.23,23.60,22.90,22.39,22.02,21.70,21.38,20.84,20.10,19.50,19.03,18.57,18.33,18.19,18.05,17.89,17.73,17.64,17.56,17.48,17.41,17.29,17.20,17.11,17.00,16.92
91.22,90.70,88.88,85.62,82.02,79.75,78.32,77.18,75.97,75.20,75.51,76.18,76.78,77.42,78.03,77.83,76.90,75.98,75.14,74.39,74.14,75.03,76.96,79.15,81.47,83.13,82.00,79.69,77.18,74.71,72.27,69.90,67.77,65.91,64.45,63.72,63.24,62.69,61.98,61.19,60.16,56.06,51.64,50.16,49.72,49.58,49.51,49.41,49.27,49.16,49.03,48.90,48.82,48.73,48.66,48.63,48.63,48.70,48.78,48.86,48.95,49.09,49.24,49.39,49.54,49.66,49.66,49.39,48.94,48.38,47.83,47.30,46.75,46.21,45.64,45.05,44.88,45.05,45.44,45.87,46.33,46.82,47.33,47.81,48.28,48.51,48.39,47.83,47.20,46.38,45.48,44.67,44.32,44.68,45.22,45.81,46.52,47.02,47.01,46.73,46.42,46.13,46.18,46.46,46.83,47.06,47.23,47.35,47.25,46.73,46.36,46.48,46.82,47.00,46.44,45.59,44.59,43.54,42.51,41.45,40.47,39.65,39.06,38.52,37.91,37.34,36.79,36.24,35.76,35.69,35.86,35.99,36.16,36.37,36.56,36.73,36.93,36.76,36.50,36.49,37.20,37.94,38.64,39.30,39.91,40.55,41.13,41.56,41.77,41.73,41.48,41.08,40.58,39.97,39.36,38.67,37.94,37.41,37.66,38.34,39.11,40.06,41.38,41.73,42.11,42.61,43.11,43.51,43.86,43.86,43.44,42.93,42.24,41.64,41.16,40.75,40.38,39.68,38.67,37.18,34.82,32.47,30.85,29.96,29.45,29.25,29.16,28.99,28.73,28.83,28.74,28.62,28.51,28.36,28.21,28.20,28.28,28.37,28.50,28.50,28.45,28.36,28.21,28.13,28.18,28.34,28.49,28.65,28.72,28.75,28.76,28.77,28.77,28.77,28.79,28.86,28.18,27.27,26.36,25.59,25.36,25.33,25.34,25.34,25.34,25.34,25.37,25.44,25.50,25.18,24.64,24.02,23.40,23.00,22.62,22.21,21.73,21.00,20.16,19.55,19.13,18.70,18.50,18.32,18.13,17.91,17.75,17.65,17.55,17.46,17.38,17.25,17.15,17.07,17.00,16.92
91.36,90.63,88.47,84.68,80.79,79.02,77.87,76.76,75.79,76.06,76.79,77.58,78.28,78.78,79.13,78.78,77.85,76.92,75.96,75.25,75.16,76.11,77.79,79.73,82.05,84.08,83.51,80.87,78.14,75.68,73.27,70.83,68.77,67.09,65.85,65.17,64.63,64.05,63.39,62.59,61.56,59.92,56.64,51.52,50.03,49.71,49.63,49.54,49.39,49.25,49.09,48.97,48.88,48.75,48.56,48.42,48.38,48.45,48.52,48.60,48.68,48.77,48.92,49.07,49.20,49.27,49.23,49.02,48.69,48.24,47.70,47.16,46.63,46.06,45.47,44.90,44.65,44.73,45.10,45.44,45.88,46.35,46.84,47.36,47.83,48.10,47.99,47.38,46.70,45.99,45.16,44.36,44.05,44.42,44.96,45.54,46.15,46.64,46.59,46.29,45.98,45.68,45.73,45.94,46.20,46.42,46.59,46.48,46.10,45.56,45.06,45.15,45.46,45.79,46.11,45.50,44.55,43.52,42.46,41.44,40.44,39.61,39.06,38.52,37.91,37.34,36.78,36.16,35.47,35.21,35.27,35.38,35.58,35.76,35.92,36.09,36.30,36.20,36.10,36.24,36.93,37.64,38.29,38.90,39.44,39.95,40.38,40.69,40.85,40.96,40.93,40.77,40.46,39.87,39.10,38.28,37.46,36.88,37.31,38.02,38.79,39.61,40.50,40.78,41.05,41.45,41.91,42.30,42.73,43.10,43.35,43.38,42.73,42.15,41.71,41.22,40.87,40.40,39.90,39.16,37.16,34.85,32.97,31.57,30.35,29.71,29.48,29.12,28.47,28.91,28.94,28.79,28.64,28.49,28.33,28.21,28.15,28.23,28.32,28.38,28.38,28.29,28.15,28.11,28.18,28.34,28.49,28.65,28.78,28.89,28.95,28.95,28.95,28.95,28.97,29.02,28.65,27.91,27.06,26.46,26.30,26.31,26.36,26.36,26.36,26.36,26.36,26.30,26.00,25.57,25.06,24.50,23.97,23.63,23.06,22.37,21.59,20.78,20.03,19.46,19.07,18.86,18.64,18.42,18.20,17.97,17.81,17.67,17.53,17.40,17.32,17.23,17.15,17.07,17.00,16.92
91.53,90.69,88.19,83.94,80.25,78.65,77.59,76.69,76.31,77.02,77.90,78.74,79.44,79.84,79.96,79.50,78.56,77.59,76.59,76.13,76.24,76.99,78.34,79.98,82.31,84.82,85.14,82.31,79.27,76.71,74.40,72.14,70.01,68.31,67.27,66.59,65.99,65.38,64.79,64.41,63.51,62.53,60.29,55.79,52.36,50.53,49.76,49.67,49.52,49.36,49.21,49.06,48.95,48.80,48.59,48.39,48.26,48.22,48.27,48.32,48.38,48.46,48.60,48.73,48.81,48.81,48.77,48.62,48.33,47.94,47.51,47.02,46.48,45.90,45.32,44.78,44.42,44.41,44.78,45.10,45.50,45.93,46.37,46.87,47.37,47.66,47.54,46.89,46.24,45.55,44.78,44.04,43.75,44.12,44.68,45.26,45.82,46.23,46.13,45.80,45.49,45.19,45.21,45.36,45.56,45.74,45.87,45.55,44.96,44.41,43.88,43.85,44.10,44.53,45.10,45.12,44.49,43.48,42.44,41.40,40.41,39.59,39.05,38.52,37.97,37.38,36.72,36.02,35.22,34.86,34.84,34.92,35.03,35.15,35.30,35.49,35.67,35.65,35.69,35.97,36.63,37.29,37.90,38.45,38.94,39.37,39.74,39.97,40.09,40.20,40.19,40.06,39.79,39.31,38.51,37.69,36.86,36.26,36.65,37.27,37.99,38.77,39.52,39.77,39.96,40.25,40.71,41.17,41.75,42.33,42.82,43.13,43.02,42.64,42.14,41.64,41.18,40.75,40.40,40.00,38.88,37.10,35.37,33.80,32.18,30.90,30.08,29.33,28.55,29.08,29.13,28.97,28.82,28.66,28.51,28.36,28.23,28.20,28.16,28.23,28.29,28.23,28.13,28.10,28.18,28.34,28.49,28.65,28.80,28.93,29.00,29.08,29.13,29.14,29.15,29.18,29.09,28.50,27.73,27.41,27.30,27.33,27.38,27.36,27.25,27.17,27.05,26.84,26.42,26.00,25.49,24.94,24.37,23.79,23.07,22.27,21.42,20.58,19.92,19.45,19.14,18.95,18.72,18.49,18.26,18.03,17.84,17.70,17.57,17.43,17.31,17.23,17.15,17.07,17.00,16.92
91.62,90.78,87.98,83.38,79.95,78.46,77.48,76.84,77.00,77.88,78.81,79.66,80.35,80.71,80.61,80.04,79.13,78.18,77.28,77.09,77.35,77.82,78.81,80.26,82.66,85.60,86.88,84.21,80.86,77.96,75.71,73.67,71.52,69.78,68.78,67.99,67.33,66.69,66.25,66.39,65.74,64.88,63.41,60.41,55.40,51.95,50.20,49.80,49.63,49.48,49.32,49.17,49.02,48.86,48.65,48.42,48.22,48.06,48.04,48.05,48.05,48.13,48.27,48.37,48.39,48.33,48.31,48.20,47.95,47.58,47.26,46.83,46.30,45.73,45.19,44.64,44.20,44.10,44.46,44.78,45.15,45.53,45.93,46.39,46.90,47.20,47.09,46.41,45.76,45.09,44.37,43.70,43.44,43.82,44.39,44.98,45.49,45.81,45.65,45.30,44.99,44.69,44.64,44.73,44.88,45.03,45.14,44.68,43.96,43.35,42.75,42.55,42.74,43.25,43.86,44.46,44.29,43.44,42.43,41.38,40.40,39.61,39.08,38.53,38.01,37.38,36.61,35.82,34.99,34.55,34.45,34.52,34.53,34.59,34.72,34.91,35.05,35.09,35.28,35.69,36.29,36.89,37.46,37.98,38.44,38.82,39.13,39.30,39.35,39.39,39.33,39.16,38.90,38.52,37.80,37.02,36.22,35.63,35.95,36.45,37.07,37.80,38.51,38.80,38.92,39.16,39.68,40.25,40.95,41.64,42.23,42.72,43.14,43.00,42.48,41.98,41.41,40.97,40.66,40.41,40.09,38.99,37.55,35.92,34.08,32.25,30.85,29.67,28.79,29.26,29.30,29.15,29.01,28.86,28.70,28.54,28.39,28.24,28.09,28.13,28.19,28.16,28.10,28.09,28.18,28.34,28.49,28.65,28.80,28.93,29.01,29.16,29.26,29.32,29.33,29.34,29.45,29.03,28.42,28.38,28.29,28.29,28.30,28.24,28.04,27.88,27.64,27.28,26.83,26.42,25.90,25.30,24.63,23.81,22.97,22.12,21.27,20.44,19.84,19.48,19.24,19.00,18.77,18.54,18.31,18.09,17.86,17.74,17.62,17.47,17.32,17.23,17.15,17.07,17.00,16.92
91.47,90.76,87.87,83.07,79.75,78.47,77.77,77.33,77.52,78.35,79.24,80.05,80.73,81.25,80.92,80.26,79.50,78.77,78.34,78.29,78.46,78.76,79.26,80.94,83.61,86.77,88.84,87.35,83.79,79.91,77.50,75.49,73.65,71.97,70.52,69.34,68.56,68.00,67.83,68.46,68.33,67.75,66.24,63.03,58.62,54.71,51.70,49.94,49.70,49.54,49.39,49.23,49.08,48.92,48.72,48.51,48.33,48.12,47.90,47.74,47.66,47.75,47.89,47.96,47.94,47.87,47.81,47.77,47.57,47.20,46.88,46.50,46.07,45.60,45.06,44.52,44.00,43.83,44.15,44.46,44.83,45.19,45.53,45.94,46.41,46.73,46.64,45.95,45.27,44.58,43.88,43.28,43.15,43.56,44.11,44.66,45.16,45.35,45.17,44.85,44.54,44.24,44.05,44.01,44.13,44.28,44.41,44.13,43.46,42.57,41.68,41.26,41.39,41.98,42.59,43.21,43.58,43.44,42.44,41.47,40.50,39.70,39.19,38.60,37.93,37.19,36.41,35.58,34.79,34.27,34.07,34.14,34.14,34.20,34.27,34.33,34.43,34.49,34.81,35.34,35.86,36.41,36.95,37.49,37.98,38.32,38.50,38.55,38.50,38.40,38.31,38.15,37.88,37.50,37.07,36.35,35.58,35.11,35.43,35.85,36.30,36.84,37.52,37.96,38.14,38.47,39.22,39.94,40.60,41.27,41.92,42.49,42.88,42.93,42.65,42.09,41.57,41.23,40.96,40.66,40.30,39.81,38.71,37.05,35.20,33.34,31.82,30.41,29.18,29.44,29.43,29.30,29.20,29.04,28.89,28.74,28.58,28.43,28.27,28.17,28.10,28.05,28.03,28.07,28.18,28.34,28.49,28.65,28.80,28.93,29.02,29.16,29.30,29.43,29.52,29.53,29.61,29.42,29.18,29.30,29.20,29.05,28.91,28.78,28.62,28.46,28.16,27.73,27.27,26.82,26.16,25.40,24.65,23.81,22.96,22.12,21.27,20.44,19.89,19.55,19.29,19.01,18.77,18.54,18.33,18.15,17.92,17.77,17.62,17.47,17.32,17.23,17.15,17.07,17.00,16.92
91.26,90.63,87.90,83.35,79.98,78.82,78.22,77.81,77.90,78.63,79.44,80.22,81.01,81.73,81.44,80.85,80.26,79.76,79.52,79.48,79.56,79.72,80.00,81.84,84.66,87.79,89.97,89.55,87.13,83.79,80.65,77.99,76.15,74.60,73.06,71.69,70.80,70.30,70.22,70.70,70.82,70.20,68.48,65.20,61.07,57.20,53.87,51.36,50.15,49.73,49.51,49.34,49.18,49.03,48.80,48.55,48.32,48.04,47.73,47.47,47.32,47.40,47.49,47.51,47.47,47.42,47.34,47.30,47.14,46.81,46.50,46.13,45.76,45.37,44.89,44.38,43.85,43.60,43.84,44.14,44.51,44.86,45.19,45.57,45.97,46.25,46.16,45.47,44.80,44.13,43.47,42.92,42.84,43.24,43.77,44.31,44.80,44.91,44.70,44.37,44.06,43.75,43.50,43.39,43.44,43.55,43.68,43.59,43.12,42.11,41.11,40.53,40.48,41.00,41.66,42.29,42.83,43.02,42.33,41.52,40.61,39.81,39.23,38.53,37.78,37.00,36.21,35.37,34.59,33.99,33.68,33.72,33.76,33.82,33.87,33.88,33.95,34.00,34.34,34.91,35.41,35.94,36.46,36.97,37.44,37.67,37.69,37.62,37.50,37.35,37.29,37.15,36.89,36.51,36.16,35.57,34.94,34.59,34.92,35.31,35.69,36.13,36.69,37.17,37.62,38.22,39.08,39.86,40.47,41.06,41.70,42.32,42.64,42.76,42.63,42.15,41.73,41.41,41.11,40.79,40.42,40.17,39.43,38.05,36.24,34.44,32.85,31.31,29.91,29.69,29.56,29.43,29.32,29.19,29.04,28.89,28.73,28.58,28.43,28.27,28.15,28.07,28.02,28.06,28.18,28.34,28.49,28.65,28.78,28.90,29.02,29.16,29.32,29.47,29.61,29.67,29.75,29.71,29.68,29.79,29.73,29.60,29.48,29.37,29.19,28.95,28.60,28.12,27.62,27.05,26.30,25.51,24.81,24.07,23.29,22.49,21.69,20.82,20.06,19.59,19.32,19.05,18.81,18.58,18.37,18.18,17.95,17.77,17.62,17.48,17.35,17.24,17.15,17.07,17.00,16.92
90.85,90.22,87.85,83.93,80.54,79.36,78.73,78.27,78.23,78.80,79.48,80.26,81.19,82.13,82.11,81.73,81.30,80.97,80.71,80.63,80.64,80.69,80.90,82.88,85.72,88.64,90.55,91.00,90.34,88.38,84.63,81.30,79.22,77.67,76.19,74.83,73.90,73.43,73.26,73.13,73.09,72.14,70.15,66.99,62.89,59.30,56.20,53.47,51.03,50.10,49.71,49.47,49.32,49.17,48.91,48.60,48.27,47.91,47.59,47.28,47.05,47.06,47.08,47.03,46.98,46.96,46.90,46.82,46.68,46.43,46.12,45.75,45.40,45.06,44.67,44.22,43.71,43.41,43.53,43.82,44.20,44.54,44.86,45.25,45.58,45.79,45.67,44.99,44.36,43.73,43.11,42.59,42.52,42.89,43.39,43.93,44.40,44.48,44.22,43.86,43.55,43.24,42.99,42.84,42.80,42.87,42.95,43.05,42.81,41.86,40.88,40.17,39.94,40.25,40.94,41.56,42.04,42.29,42.08,41.48,40.70,39.91,39.20,38.38,37.59,36.81,36.02,35.18,34.39,33.71,33.28,33.30,33.36,33.43,33.48,33.49,33.56,33.58,33.88,34.42,34.95,35.49,35.98,36.44,36.81,36.90,36.75,36.57,36.42,36.28,36.25,36.16,35.93,35.55,35.17,34.71,34.29,34.07,34.41,34.80,35.18,35.58,36.03,36.55,37.34,38.28,39.18,39.95,40.48,40.98,41.55,42.19,42.43,42.53,42.49,42.19,41.88,41.52,41.17,40.85,40.49,40.27,39.85,38.94,37.19,35.41,33.71,32.05,30.59,29.92,29.68,29.52,29.38,29.28,29.14,28.99,28.83,28.68,28.53,28.38,28.25,28.16,28.03,28.06,28.18,28.34,28.49,28.65,28.76,28.87,29.02,29.17,29.32,29.47,29.63,29.76,29.86,29.93,29.96,29.98,29.97,29.96,29.94,29.90,29.70,29.38,28.97,28.48,27.91,27.21,26.44,25.75,25.22,24.62,23.93,23.23,22.46,21.42,20.29,19.63,19.34,19.11,18.88,18.65,18.41,18.19,17.95,17.79,17.63,17.49,17.39,17.26,17.15,17.07,16.99,16.91
89.57,88.69,86.89,84.21,81.45,79.93,79.10,78.67,78.63,78.95,79.44,80.17,81.16,82.19,82.76,82.78,82.42,82.06,81.77,81.67,81.67,81.69,81.82,83.85,86.54,89.10,90.98,91.89,91.77,90.70,88.70,86.56,84.11,81.72,79.84,78.91,78.26,77.67,76.98,75.94,74.63,72.94,70.78,67.87,63.92,60.36,57.47,55.12,52.85,51.09,50.09,49.66,49.51,49.40,49.12,48.74,48.34,48.00,47.64,47.31,46.99,46.69,46.63,46.58,46.52,46.47,46.44,46.38,46.25,46.05,45.73,45.37,45.02,44.69,44.31,43.95,43.50,43.19,43.22,43.51,43.88,44.22,44.55,44.93,45.25,45.43,45.29,44.65,44.02,43.37,42.73,42.23,42.19,42.56,43.04,43.54,44.02,44.05,43.77,43.40,43.04,42.73,42.48,42.30,42.21,42.23,42.30,42.37,42.23,41.63,40.77,40.08,39.70,39.74,40.22,40.69,41.08,41.39,41.52,41.18,40.56,39.85,39.09,38.25,37.42,36.62,35.83,34.99,34.20,33.43,32.89,32.91,32.98,33.02,33.03,33.05,33.12,33.13,33.42,33.97,34.51,35.00,35.51,35.89,36.00,35.89,35.72,35.53,35.35,35.25,35.23,35.17,34.98,34.59,34.20,33.80,33.53,33.54,33.90,34.29,34.67,35.13,35.80,36.68,37.63,38.57,39.45,40.14,40.62,41.07,41.57,42.07,42.21,42.28,42.30,42.18,41.94,41.59,41.24,40.92,40.60,40.36,40.08,39.42,37.80,35.68,33.58,31.53,29.82,29.76,29.72,29.57,29.38,29.25,29.09,28.95,28.79,28.64,28.53,28.39,28.25,28.12,27.97,28.04,28.18,28.34,28.49,28.65,28.79,28.92,29.07,29.23,29.34,29.47,29.63,29.78,29.91,29.98,30.00,30.00,30.00,30.00,30.00,29.99,29.91,29.67,29.27,28.72,28.08,27.46,26.96,26.59,26.32,25.89,25.25,24.55,23.63,21.90,20.41,19.65,19.40,19.17,18.94,18.71,18.48,18.25,18.01,17.84,17.69,17.54,17.41,17.26,17.15,17.06,16.94,16.86
88.60,87.42,85.91,84.06,81.91,80.30,79.46,79.16,79.13,79.31,79.63,80.22,81.13,82.12,83.03,83.46,83.43,83.13,82.83,82.70,82.69,82.69,82.76,84.54,86.93,89.25,91.16,92.52,92.91,92.52,91.62,90.37,88.21,85.82,83.83,82.75,81.85,80.78,79.43,77.69,75.60,73.44,71.14,68.33,64.51,60.94,58.14,56.08,54.12,52.09,50.78,50.14,49.86,49.68,49.37,48.96,48.50,48.13,47.75,47.37,46.96,46.50,46.30,46.17,46.06,45.99,45.96,45.92,45.83,45.66,45.36,44.98,44.64,44.31,43.94,43.62,43.22,42.91,42.88,43.16,43.51,43.85,44.20,44.55,44.87,45.05,44.91,44.30,43.68,43.02,42.38,41.88,41.90,42.25,42.70,43.20,43.66,43.63,43.33,42.93,42.54,42.22,41.97,41.77,41.63,41.63,41.67,41.61,41.40,41.00,40.35,39.78,39.40,39.30,39.61,39.94,40.24,40.52,40.80,40.64,40.21,39.63,38.90,38.06,37.23,36.42,35.61,34.79,33.99,33.17,32.58,32.51,32.56,32.59,32.59,32.60,32.67,32.70,33.00,33.52,34.03,34.52,35.03,35.28,35.09,34.87,34.67,34.48,34.30,34.23,34.22,34.18,34.02,33.64,33.25,32.93,32.83,33.02,33.39,33.78,34.29,34.98,35.90,37.04,38.07,38.97,39.75,40.28,40.72,41.15,41.59,41.91,41.97,42.02,42.07,42.05,41.89,41.60,41.27,40.97,40.66,40.41,40.17,39.58,37.81,35.40,33.01,30.73,28.98,29.42,29.60,29.55,29.40,29.25,29.09,28.94,28.79,28.64,28.53,28.39,28.24,28.08,27.94,28.03,28.18,28.34,28.49,28.65,28.80,28.95,29.11,29.26,29.38,29.50,29.66,29.81,29.95,30.00,30.00,30.00,30.00,30.00,30.00,30.00,29.99,29.87,29.56,29.09,28.55,28.11,27.83,27.68,27.57,27.25,26.67,25.83,24.54,22.30,20.52,19.67,19.43,19.20,19.00,18.77,18.54,18.31,18.08,17.89,17.72,17.57,17.41,17.26,17.15,17.05,16.91,16.82
88.09,86.60,85.06,83.46,81.79,80.44,79.84,79.74,79.75,79.89,80.07,80.44,81.14,81.99,82.89,83.70,84.23,84.16,83.90,83.76,83.71,83.71,83.72,84.93,86.87,89.12,91.04,92.88,93.93,94.06,93.24,92.28,91.06,89.61,87.88,85.96,84.24,82.39,80.34,78.18,76.02,73.77,71.34,68.47,64.72,61.16,58.35,56.39,54.72,53.05,51.81,51.01,50.45,50.04,49.67,49.25,48.73,48.28,47.88,47.42,46.94,46.53,46.12,45.82,45.65,45.55,45.47,45.45,45.40,45.27,44.97,44.60,44.26,43.93,43.55,43.24,42.88,42.58,42.51,42.78,43.09,43.44,43.80,44.11,44.42,44.63,44.53,43.91,43.30,42.68,42.05,41.57,41.63,41.96,42.39,42.87,43.32,43.22,42.88,42.47,42.03,41.72,41.47,41.24,41.07,41.05,41.03,40.78,40.36,39.94,39.57,39.23,38.98,38.91,39.13,39.38,39.59,39.78,39.97,39.90,39.63,39.21,38.61,37.80,37.01,36.20,35.37,34.58,33.75,32.95,32.33,32.09,32.12,32.14,32.14,32.16,32.23,32.30,32.59,33.06,33.53,34.06,34.54,34.62,34.12,33.84,33.61,33.42,33.28,33.21,33.20,33.19,33.06,32.68,32.31,32.14,32.19,32.50,32.88,33.28,34.06,35.17,36.31,37.53,38.60,39.46,40.04,40.35,40.76,41.20,41.58,41.70,41.72,41.77,41.82,41.81,41.73,41.53,41.26,40.96,40.65,40.41,40.17,39.47,37.26,34.65,32.13,29.87,28.38,28.93,29.30,29.43,29.44,29.30,29.15,29.01,28.85,28.70,28.55,28.39,28.25,28.08,27.95,28.02,28.17,28.33,28.48,28.64,28.79,28.95,29.11,29.25,29.41,29.55,29.71,29.86,29.96,30.00,30.00,30.00,30.00,30.00,30.00,30.00,30.00,29.98,29.84,29.58,29.32,29.13,29.00,28.93,28.83,28.60,28.07,26.95,25.09,22.64,20.62,19.68,19.44,19.21,19.04,18.83,18.60,18.37,18.14,17.92,17.72,17.58,17.41,17.27,17.16,17.05,16.91,16.82
87.48,85.94,84.37,82.80,81.37,80.65,80.38,80.29,80.23,80.32,80.46,80.78,81.39,82.14,82.92,83.73,84.45,84.86,84.90,84.83,84.77,84.73,84.73,85.22,86.67,88.89,90.64,92.53,94.17,95.13,94.81,93.94,92.86,91.42,89.44,87.12,84.91,82.73,80.56,78.36,76.12,73.83,71.38,68.50,64.75,61.28,58.78,57.29,55.84,54.37,53.23,52.38,51.62,50.84,50.10,49.46,48.93,48.46,47.99,47.53,47.08,46.64,46.19,45.81,45.50,45.22,45.04,44.99,44.96,44.84,44.59,44.22,43.88,43.55,43.17,42.89,42.61,42.35,42.22,42.41,42.70,43.03,43.36,43.67,43.98,44.19,44.11,43.53,42.91,42.33,41.71,41.22,41.35,41.66,42.05,42.50,42.95,42.78,42.44,42.02,41.58,41.26,41.01,40.78,40.56,40.38,40.16,39.82,39.44,39.16,38.89,38.72,38.66,38.72,38.90,39.12,39.31,39.43,39.41,39.23,38.90,38.53,38.15,37.51,36.76,35.97,35.16,34.34,33.50,32.70,32.06,31.75,31.70,31.69,31.69,31.71,31.78,31.86,32.15,32.61,33.09,33.61,33.92,33.82,33.23,32.81,32.54,32.34,32.22,32.18,32.17,32.17,32.05,31.70,31.51,31.47,31.63,31.99,32.38,32.91,33.96,35.41,36.78,38.03,39.09,39.84,40.23,40.51,40.83,41.16,41.42,41.46,41.47,41.49,41.51,41.51,41.52,41.39,41.16,40.86,40.59,40.35,40.14,39.40,36.92,34.14,31.62,29.68,28.65,28.53,28.94,29.24,29.26,29.24,29.19,29.06,28.91,28.76,28.61,28.45,28.29,28.14,27.99,27.97,28.06,28.22,28.38,28.57,28.74,28.89,29.05,29.21,29.36,29.52,29.67,29.82,29.95,30.00,30.00,30.00,30.00,30.00,30.00,30.00,30.00,30.00,29.95,29.85,29.77,29.77,29.81,29.86,29.83,29.63,29.14,27.80,25.46,22.96,20.76,19.73,19.50,19.27,19.06,18.84,18.63,18.43,18.20,17.97,17.78,17.63,17.47,17.31,17.18,17.05,16.91,16.82
86.84,85.28,83.72,82.24,81.16,80.97,80.93,80.83,80.72,80.74,80.85,81.14,81.68,82.36,83.07,83.81,84.58,85.34,85.70,85.81,85.80,85.75,85.75,85.73,86.68,88.63,90.19,92.05,94.09,95.75,96.18,95.50,94.34,92.61,90.21,87.66,85.16,82.80,80.57,78.39,76.08,73.76,71.30,68.40,64.70,61.34,59.09,57.97,56.72,55.43,54.36,53.45,52.53,51.46,50.42,49.59,49.08,48.63,48.12,47.67,47.26,46.80,46.34,45.91,45.49,45.05,44.75,44.62,44.53,44.41,44.19,43.84,43.49,43.18,42.85,42.61,42.38,42.14,41.97,42.05,42.32,42.62,42.91,43.22,43.55,43.77,43.69,43.14,42.52,41.96,41.37,40.87,41.06,41.37,41.73,42.15,42.58,42.36,41.99,41.57,41.13,40.80,40.53,40.27,39.99,39.67,39.32,38.95,38.66,38.50,38.34,38.30,38.39,38.56,38.72,38.92,39.07,39.10,38.92,38.65,38.24,37.87,37.60,37.11,36.47,35.73,34.95,34.10,33.26,32.46,31.78,31.41,31.30,31.26,31.25,31.27,31.34,31.41,31.70,32.16,32.63,33.15,33.27,32.99,32.38,31.81,31.47,31.27,31.16,31.16,31.16,31.16,31.07,30.82,30.80,30.87,31.09,31.48,31.88,32.51,33.74,35.41,36.97,38.34,39.42,40.10,40.32,40.59,40.82,41.03,41.19,41.19,41.19,41.19,41.20,41.23,41.31,41.24,41.04,40.75,40.52,40.29,39.96,38.99,36.34,33.49,31.17,29.65,29.04,28.39,28.63,28.95,29.04,29.10,29.13,29.07,28.95,28.82,28.66,28.51,28.36,28.20,28.05,27.95,27.97,28.12,28.28,28.48,28.66,28.81,28.96,29.12,29.27,29.44,29.60,29.74,29.88,29.95,29.97,30.00,30.00,30.00,30.00,30.00,30.00,30.00,30.00,30.00,30.03,30.13,30.32,30.49,30.53,30.37,29.81,28.28,25.73,23.18,20.86,19.77,19.56,19.33,19.09,18.86,18.65,18.47,18.25,18.02,17.82,17.67,17.51,17.36,17.20,17.05,16.91,16.82
86.21,84.61,83.09,81.89,81.48,81.46,81.44,81.36,81.27,81.21,81.26,81.48,81.94,82.62,83.37,84.10,84.81,85.52,86.14,86.57,86.77,86.76,86.77,86.72,87.18,88.34,89.77,91.66,93.71,95.70,97.17,96.97,95.65,93.46,90.56,87.93,85.37,82.86,80.44,78.25,75.91,73.57,71.07,68.11,64.53,61.28,59.07,57.95,56.89,55.83,54.78,53.73,52.68,51.54,50.45,49.62,49.15,48.75,48.29,47.86,47.45,46.99,46.53,46.07,45.62,45.16,44.73,44.37,44.13,43.98,43.80,43.46,43.12,42.84,42.64,42.42,42.19,41.95,41.75,41.71,41.94,42.21,42.47,42.78,43.15,43.39,43.31,42.75,42.08,41.55,41.01,40.55,40.75,41.09,41.48,41.88,42.26,41.95,41.55,41.13,40.68,40.30,39.98,39.66,39.29,38.92,38.65,38.36,38.09,37.96,37.97,38.02,38.16,38.36,38.52,38.69,38.73,38.65,38.42,38.18,37.80,37.34,36.93,36.52,36.08,35.48,34.69,33.85,33.05,32.23,31.49,31.04,30.91,30.84,30.80,30.82,30.89,30.97,31.26,31.72,32.19,32.66,32.60,32.16,31.54,30.88,30.45,30.22,30.15,30.15,30.15,30.15,30.14,30.16,30.22,30.34,30.58,30.97,31.37,32.00,33.23,34.93,36.60,38.23,39.44,40.14,40.31,40.49,40.66,40.79,40.87,40.87,40.87,40.88,40.89,40.97,41.10,41.08,40.93,40.69,40.45,40.22,39.47,37.91,35.22,32.49,30.63,29.63,29.28,28.75,28.45,28.52,28.83,28.86,28.91,28.93,28.91,28.87,28.73,28.57,28.42,28.27,28.12,27.97,27.95,28.05,28.21,28.37,28.53,28.68,28.84,28.99,29.15,29.33,29.52,29.62,29.70,29.78,29.87,29.98,30.00,30.00,30.00,30.00,30.00,30.00,30.00,30.01,30.07,30.10,30.38,30.67,30.74,30.71,29.85,28.20,25.83,23.25,20.89,19.80,19.62,19.39,19.16,18.93,18.70,18.48,18.25,18.02,17.82,17.67,17.51,17.36,17.20,17.05,16.91,16.82
85.53,84.01,82.71,81.92,82.01,82.04,81.97,81.87,81.79,81.72,81.70,81.82,82.21,82.92,83.65,84.38,85.10,85.75,86.41,86.97,87.39,87.61,87.67,87.63,87.78,88.39,89.66,91.61,93.87,96.19,98.19,98.44,96.84,94.15,90.94,88.20,85.53,82.84,80.23,77.91,75.49,73.11,70.55,67.48,63.99,61.02,59.02,57.99,57.02,56.06,55.03,53.94,52.81,51.69,50.63,49.80,49.31,48.92,48.47,48.05,47.64,47.18,46.72,46.25,45.79,45.33,44.86,44.46,44.11,43.80,43.49,43.15,42.85,42.60,42.41,42.22,41.99,41.76,41.55,41.43,41.59,41.83,42.07,42.39,42.72,42.98,42.93,42.37,41.73,41.13,40.59,40.23,40.47,40.83,41.20,41.55,41.81,41.53,41.14,40.73,40.29,39.93,39.61,39.28,38.94,38.64,38.36,38.09,37.84,37.68,37.70,37.79,37.94,38.13,38.31,38.36,38.30,38.15,37.92,37.69,37.32,36.89,36.43,36.04,35.62,35.10,34.43,33.59,32.81,31.99,31.22,30.71,30.54,30.48,30.44,30.41,30.41,30.51,30.81,31.27,31.73,32.13,31.93,31.38,30.78,30.24,29.96,29.84,29.80,29.80,29.80,29.80,29.82,29.90,29.94,30.04,30.18,30.43,30.85,31.49,32.73,34.42,36.09,37.50,38.70,39.58,40.00,40.25,40.39,40.49,40.55,40.56,40.59,40.63,40.67,40.76,40.87,40.88,40.77,40.57,40.34,40.14,39.05,37.01,34.46,31.94,30.38,29.60,29.32,28.94,28.52,28.41,28.60,28.65,28.69,28.73,28.76,28.74,28.67,28.59,28.48,28.33,28.17,28.02,27.93,27.94,28.09,28.25,28.42,28.60,28.76,28.91,29.07,29.23,29.36,29.45,29.55,29.63,29.70,29.84,29.93,29.98,30.00,30.00,30.00,30.00,29.81,29.51,29.49,29.67,30.05,30.38,30.44,30.42,29.34,27.61,25.45,23.01,20.81,19.81,19.63,19.41,19.21,18.99,18.76,18.52,18.30,18.06,17.87,17.71,17.56,17.41,17.25,17.09,16.95,16.83
84.89,83.50,82.54,82.19,82.60,82.63,82.52,82.39,82.31,82.23,82.15,82.19,82.49,83.21,83.93,84.65,85.36,85.98,86.60,87.22,87.80,88.29,88.47,88.49,88.51,88.80,89.94,92.02,94.53,97.09,99.15,99.65,97.79,94.70,91.26,88.32,85.47,82.62,79.83,77.30,74.81,72.37,69.73,66.59,63.14,60.58,58.94,58.04,57.14,56.22,55.21,54.13,53.01,51.94,50.91,50.08,49.52,49.11,48.67,48.25,47.84,47.38,46.91,46.44,45.97,45.49,45.02,44.60,44.17,43.70,43.26,42.93,42.65,42.41,42.18,42.00,41.79,41.57,41.35,41.19,41.27,41.45,41.70,42.00,42.30,42.55,42.54,41.99,41.38,40.74,40.21,39.97,40.21,40.55,40.86,41.12,41.27,41.09,40.76,40.38,39.97,39.66,39.34,39.02,38.73,38.48,38.19,37.93,37.69,37.49,37.46,37.58,37.73,37.89,38.06,37.97,37.81,37.64,37.41,37.17,36.84,36.43,35.99,35.58,35.14,34.69,34.14,33.36,32.60,31.77,30.96,30.39,30.20,30.16,30.13,30.06,30.00,30.10,30.38,30.78,31.19,31.51,31.27,30.71,30.14,29.77,29.68,29.68,29.68,29.68,29.68,29.68,29.71,29.78,29.79,29.85,29.90,29.99,30.37,30.99,32.19,33.82,35.36,36.48,37.61,38.64,39.32,39.67,39.85,39.98,40.09,40.16,40.29,40.39,40.47,40.55,40.63,40.66,40.60,40.43,40.20,39.89,38.53,36.24,33.88,31.55,30.21,29.58,29.28,29.02,28.64,28.40,28.39,28.44,28.46,28.50,28.55,28.56,28.56,28.56,28.51,28.38,28.24,28.09,27.93,27.85,27.98,28.13,28.33,28.53,28.68,28.84,28.98,29.09,29.18,29.27,29.40,29.46,29.49,29.63,29.80,29.90,29.97,30.00,30.00,30.00,29.60,28.93,28.67,28.85,29.27,29.67,29.79,29.68,28.46,26.76,24.83,22.61,20.69,19.80,19.63,19.41,19.25,19.05,18.82,18.59,18.36,18.13,17.93,17.77,17.61,17.46,17.30,17.15,16.99,16.84
84.39,83.32,82.78,82.82,83.14,83.14,83.06,82.97,82.88,82.75,82.66,82.63,82.81,83.48,84.23,84.90,85.50,86.12,86.73,87.35,87.96,88.54,88.98,89.25,89.51,89.99,91.24,93.58,96.32,98.74,99.89,100.02,98.06,94.95,91.37,87.94,84.78,81.76,78.84,76.08,73.47,70.96,68.29,65.13,61.64,59.84,58.80,58.00,57.24,56.35,55.37,54.36,53.37,52.41,51.42,50.50,49.79,49.31,48.90,48.48,48.03,47.56,47.10,46.60,46.08,45.55,45.03,44.57,44.09,43.59,43.18,42.86,42.56,42.27,41.98,41.76,41.58,41.38,41.15,40.95,40.97,41.14,41.37,41.62,41.87,42.11,42.11,41.61,41.00,40.46,40.05,39.87,39.98,40.17,40.34,40.45,40.51,40.55,40.38,40.11,39.83,39.57,39.23,38.89,38.59,38.30,38.05,37.77,37.50,37.30,37.27,37.38,37.54,37.66,37.66,37.49,37.30,37.13,36.90,36.67,36.33,35.94,35.53,35.09,34.67,34.24,33.75,33.20,32.56,31.68,30.74,30.10,29.98,29.93,29.89,29.87,29.85,29.88,29.99,30.15,30.34,30.63,30.63,30.34,29.84,29.60,29.55,29.55,29.55,29.55,29.55,29.58,29.65,29.71,29.73,29.78,29.85,29.91,30.04,30.52,31.54,32.89,34.06,35.19,36.19,37.05,37.71,38.11,38.48,38.82,39.15,39.50,39.92,40.14,40.22,40.30,40.38,40.43,40.41,40.25,40.04,39.09,37.59,35.70,33.53,31.23,30.02,29.52,29.21,28.91,28.63,28.39,28.25,28.21,28.25,28.28,28.31,28.37,28.37,28.37,28.38,28.38,28.29,28.15,28.00,27.89,27.93,28.07,28.23,28.40,28.55,28.71,28.82,28.91,29.00,29.13,29.23,29.23,29.22,29.33,29.53,29.69,29.84,29.99,30.00,30.00,29.57,28.69,27.70,27.14,27.40,28.05,28.46,28.12,26.97,25.55,23.98,22.02,20.50,19.78,19.57,19.40,19.25,19.08,18.88,18.66,18.42,18.19,17.97,17.77,17.61,17.46,17.30,17.15,17.00,16.84
84.13,83.35,83.16,83.48,83.71,83.67,83.58,83.50,83.41,83.29,83.20,83.14,83.19,83.75,84.44,85.08,85.66,86.28,86.90,87.50,88.09,88.71,89.28,89.98,90.85,91.95,93.44,95.69,98.01,99.78,100.23,100.00,97.87,94.73,91.18,87.45,84.03,80.70,77.42,74.41,71.78,69.36,66.78,63.70,60.67,59.32,58.56,57.81,57.02,56.11,55.21,54.36,53.59,52.79,51.89,50.96,50.10,49.49,49.02,48.54,48.05,47.56,47.06,46.54,46.01,45.50,44.95,44.45,43.98,43.54,43.16,42.83,42.51,42.17,41.87,41.60,41.37,41.16,40.95,40.73,40.69,40.80,41.02,41.28,41.51,41.63,41.51,41.05,40.61,40.23,39.93,39.77,39.75,39.82,39.91,39.98,40.04,40.13,40.05,39.85,39.62,39.38,39.06,38.74,38.46,38.15,37.88,37.59,37.31,37.10,37.05,37.16,37.27,37.30,37.19,36.98,36.77,36.59,36.39,36.16,35.84,35.46,35.05,34.61,34.19,33.77,33.33,32.86,32.29,31.54,30.72,30.09,29.92,29.84,29.79,29.76,29.76,29.74,29.75,29.80,29.88,30.03,30.04,29.84,29.48,29.36,29.39,29.44,29.46,29.46,29.43,29.47,29.54,29.62,29.65,29.71,29.79,29.86,29.88,30.16,30.78,31.68,32.71,33.74,34.63,35.40,36.02,36.40,36.79,37.20,37.63,38.09,38.67,39.09,39.39,39.69,40.01,40.18,40.17,39.96,39.45,38.11,36.52,34.83,32.91,30.87,29.85,29.45,29.15,28.87,28.60,28.35,28.14,28.01,28.02,28.06,28.09,28.14,28.14,28.16,28.20,28.23,28.22,28.15,28.03,27.93,27.88,27.98,28.14,28.30,28.43,28.55,28.64,28.73,28.85,28.99,29.04,29.02,28.99,29.06,29.27,29.45,29.63,29.84,29.91,29.97,29.74,28.93,27.25,25.93,25.87,26.48,26.91,26.46,25.34,24.02,22.65,21.12,20.19,19.75,19.56,19.40,19.25,19.09,18.91,18.68,18.48,18.26,18.02,17.80,17.65,17.50,17.34,17.19,17.04,16.88
84.00,83.55,83.65,84.15,84.29,84.20,84.09,84.02,83.93,83.85,83.77,83.66,83.63,84.03,84.62,85.24,85.85,86.47,87.08,87.66,88.23,88.84,89.46,90.64,92.22,94.04,95.82,97.83,99.41,100.31,100.26,99.60,97.26,94.11,90.68,86.75,83.09,79.40,75.72,72.51,69.93,67.69,65.25,62.31,60.04,58.96,58.24,57.47,56.56,55.64,54.83,54.14,53.56,52.93,52.17,51.29,50.36,49.63,49.03,48.50,47.96,47.43,46.90,46.36,45.84,45.36,44.83,44.30,43.87,43.53,43.16,42.83,42.48,42.12,41.81,41.51,41.20,40.95,40.76,40.54,40.43,40.46,40.63,40.90,41.11,41.08,40.81,40.43,40.23,40.01,39.81,39.66,39.53,39.50,39.56,39.65,39.77,39.79,39.74,39.60,39.38,39.14,38.85,38.57,38.32,38.01,37.71,37.41,37.12,36.91,36.81,36.89,36.93,36.84,36.68,36.47,36.25,36.03,35.87,35.65,35.36,35.00,34.55,34.16,33.71,33.29,32.88,32.41,31.89,31.33,30.75,30.21,29.96,29.85,29.78,29.72,29.70,29.65,29.61,29.63,29.67,29.63,29.52,29.35,29.16,29.14,29.26,29.36,29.41,29.39,29.32,29.34,29.42,29.49,29.57,29.64,29.71,29.77,29.79,29.88,30.04,30.45,31.40,32.23,33.00,33.71,34.27,34.62,34.93,35.31,35.77,36.26,36.90,37.53,38.11,38.71,39.37,39.68,39.72,39.44,38.55,37.05,35.40,33.78,32.16,30.50,29.70,29.39,29.10,28.85,28.56,28.29,28.05,27.85,27.82,27.87,27.92,27.92,27.92,27.96,28.00,28.02,28.06,28.07,28.03,27.94,27.83,27.87,28.04,28.20,28.29,28.37,28.45,28.57,28.72,28.84,28.82,28.79,28.79,28.81,29.01,29.19,29.37,29.59,29.74,29.89,29.86,29.17,26.98,25.04,24.60,25.02,25.32,24.83,23.66,22.36,21.17,20.17,19.85,19.70,19.55,19.39,19.24,19.09,18.90,18.69,18.52,18.31,18.08,17.87,17.71,17.55,17.39,17.25,17.09,16.94
83.94,83.92,84.33,84.82,84.83,84.75,84.66,84.57,84.44,84.36,84.28,84.18,84.09,84.28,84.81,85.40,85.98,86.59,87.22,87.81,88.40,88.97,89.59,90.99,92.77,94.69,96.59,98.66,99.86,100.23,99.93,98.38,95.87,92.91,89.53,85.27,81.30,77.49,73.85,70.67,68.29,66.12,63.70,60.96,59.48,58.60,57.78,56.87,55.95,55.02,54.17,53.42,52.83,52.21,51.61,50.92,50.13,49.54,48.91,48.32,47.78,47.24,46.75,46.22,45.69,45.18,44.69,44.24,43.86,43.53,43.16,42.83,42.48,42.11,41.80,41.50,41.15,40.84,40.58,40.35,40.19,40.13,40.15,40.25,40.33,40.28,40.14,40.00,39.89,39.77,39.65,39.54,39.39,39.32,39.37,39.48,39.52,39.53,39.48,39.36,39.17,38.95,38.65,38.38,38.13,37.83,37.56,37.28,36.97,36.72,36.62,36.59,36.52,36.33,36.13,35.94,35.73,35.52,35.36,35.14,34.89,34.55,34.11,33.71,33.27,32.84,32.44,31.97,31.49,30.97,30.47,30.10,29.93,29.88,29.84,29.76,29.71,29.63,29.57,29.53,29.49,29.37,29.26,29.19,29.18,29.22,29.36,29.45,29.45,29.34,29.22,29.21,29.29,29.37,29.44,29.48,29.53,29.60,29.66,29.73,29.82,29.99,30.40,30.79,31.35,31.97,32.45,32.78,33.08,33.44,33.88,34.40,35.06,35.71,36.33,36.97,37.75,38.16,38.27,38.07,37.43,36.03,34.42,32.86,31.46,30.25,29.63,29.34,29.08,28.80,28.50,28.20,27.94,27.77,27.82,27.88,27.90,27.89,27.85,27.85,27.86,27.86,27.84,27.88,27.89,27.85,27.81,27.83,27.91,28.02,28.10,28.18,28.29,28.44,28.57,28.62,28.61,28.60,28.58,28.56,28.71,28.91,29.10,29.29,29.49,29.65,29.19,27.97,26.13,24.04,23.47,23.79,23.98,23.55,22.20,20.98,20.30,19.85,19.70,19.61,19.49,19.34,19.18,19.02,18.86,18.69,18.53,18.32,18.11,17.92,17.72,17.56,17.40,17.25,17.09,16.94
