308.06,311.38,314.70,318.52,323.17,328.08,332.84,337.43,341.87,346.64,351.60,355.96,360.04,362.74,364.33,365.19,365.48,364.52,361.94,357.61,352.27,346.06,338.81,331.59,326.02,318.97,311.27,304.38,299.16,294.31,289.71,285.97,282.76,278.66,274.37,268.67,261.21,252.71,248.83,246.89,245.47,244.06,242.40,239.61,234.03,226.60,219.86,214.28,207.66,202.18,200.11,199.90,199.90,199.90,199.90,199.90,199.90,199.90,199.90,199.90,199.90,199.90,199.18,197.82,197.72,197.72,196.57,195.00,195.00,195.00,195.00,195.00,195.00,195.00,195.00,195.00,195.00,195.00,195.00,195.00,195.00,195.00,195.00,195.00,195.00,195.00,195.00,195.00,195.00,195.00,195.00,195.00,195.00,195.00,195.00,195.00,195.00,195.00,195.00,195.14,196.86,197.72,198.22,199.98,202.22,208.25,217.10,226.59,231.18,233.78,235.89,239.97,250.14,259.91,265.53,269.66,275.34,282.12,289.43,296.55,302.91,307.73,311.64,315.19,318.86,323.20,327.97,331.51,334.38,337.03,339.62,341.97,344.17,346.20,347.93,350.04,352.56,355.32,358.37,362.51,366.30,369.72,372.71,375.01,376.96,378.47,379.62,380.39,380.84,380.85,380.56,380.03,379.33,378.56,377.90,377.45,377.40,376.97,376.29,375.52,374.74,373.89,372.85,371.52,369.69,366.84,362.84,359.64,357.69,357.04,357.13,357.27,357.33,357.24,356.62,355.70,354.50,353.03,351.13,347.81,341.20,333.24,326.14,319.45,313.59,308.89,305.38,302.10,298.14,293.16,288.00,284.23,281.47,279.38,277.56,275.76,273.80,271.81,269.69,267.53,265.62,263.51,261.45,259.41,257.38,256.07,255.15,254.24,253.23,252.28,251.13,249.78,248.24,246.71,246.56,246.50,246.56,247.03,247.63,248.41,249.18,249.87,250.54,251.28,252.50,254.19,256.29,258.46,260.66,262.95,265.41,268.01,269.85,271.02,271.86,272.75,273.75,274.82,275.84,276.75,277.65,278.54,279.92,282.49,287.37,292.67,298.23,303.45,307.51,310.71,313.20,315.49,317.79,320.01,322.10,324.12
311.13,314.12,317.23,321.48,326.55,331.60,336.22,340.99,345.44,349.90,354.41,358.67,362.73,365.63,367.45,368.31,368.71,367.81,365.61,362.04,357.25,351.32,344.21,336.93,331.21,325.65,318.37,310.99,304.99,299.81,295.59,291.95,288.17,282.87,277.55,272.09,265.52,257.23,251.17,248.19,246.52,245.14,243.39,241.50,237.30,230.81,223.27,217.18,211.23,205.37,200.66,199.96,199.90,199.90,199.90,199.90,199.90,199.90,199.90,199.90,199.90,199.90,198.34,195.39,195.18,195.18,195.10,195.00,195.00,195.00,195.00,195.00,195.00,195.00,195.00,195.00,195.00,195.00,195.00,195.00,195.00,195.00,195.00,195.00,195.00,195.00,195.00,195.00,195.00,195.00,195.00,195.00,195.00,195.00,195.00,195.00,195.00,195.00,195.00,195.01,195.12,195.18,196.12,198.92,199.44,201.63,208.97,221.32,229.13,232.63,234.86,237.02,240.69,253.66,262.21,267.15,272.08,278.33,285.08,292.55,300.11,305.46,310.11,314.06,318.00,322.89,327.96,331.74,334.91,338.09,341.39,344.26,346.73,348.95,351.18,353.44,355.89,358.58,361.63,365.40,369.12,372.50,375.43,377.95,379.93,381.45,382.57,383.28,383.63,383.67,383.51,383.16,382.69,381.99,381.12,380.19,379.40,378.55,377.72,376.93,376.15,375.31,374.23,372.97,371.41,369.06,365.17,361.67,359.53,359.45,359.73,360.06,360.30,360.27,359.54,358.18,356.60,354.87,352.69,349.98,343.38,335.18,328.35,321.75,315.94,311.05,307.17,304.00,300.74,296.33,291.37,287.37,284.13,281.37,278.99,276.98,275.12,273.33,271.68,270.14,268.56,266.65,264.87,262.92,260.55,258.98,257.76,256.62,255.49,254.50,253.38,252.06,250.53,248.96,248.41,248.20,248.30,248.86,249.60,250.63,251.93,253.23,253.82,253.95,253.93,254.32,255.79,257.92,260.64,263.46,266.18,268.77,270.28,271.27,272.13,273.16,274.28,275.39,276.47,277.50,278.35,279.24,280.62,282.97,286.89,291.23,296.69,302.20,306.21,309.67,312.32,314.70,317.07,319.41,321.56,323.61
313.74,316.72,320.19,325.46,330.12,334.21,338.21,342.73,347.20,351.80,356.49,360.90,365.20,368.09,369.66,370.21,370.47,369.94,368.45,365.62,361.07,355.71,349.61,342.94,336.10,330.78,325.21,319.00,312.30,306.22,300.54,295.86,291.77,286.47,280.34,275.16,270.34,264.38,256.26,250.77,247.65,246.12,244.31,242.55,240.01,235.47,227.16,220.14,214.17,208.12,202.15,200.24,199.90,199.90,199.90,199.90,199.90,199.90,199.90,199.90,199.90,199.90,198.28,195.22,195.00,195.00,195.00,195.00,195.00,195.00,195.00,195.00,195.00,195.00,195.00,195.00,195.00,195.00,195.00,195.00,195.00,195.00,195.00,195.00,195.00,195.00,195.00,195.00,195.00,195.00,195.00,195.00,195.00,195.00,195.00,195.00,195.00,195.00,195.00,195.00,195.00,195.00,195.31,196.19,196.32,198.76,204.90,215.13,226.25,231.23,233.78,235.74,238.07,243.50,254.50,265.07,270.03,275.85,281.95,288.63,295.76,302.40,307.88,312.22,316.40,321.70,326.66,330.76,334.46,338.07,341.72,345.23,348.37,351.07,353.41,355.54,357.92,360.80,364.35,368.08,371.63,374.94,377.96,380.54,382.49,384.09,385.33,385.93,386.19,386.24,386.12,385.83,385.38,384.72,383.88,382.88,381.70,380.34,379.23,378.35,377.56,376.72,375.64,374.28,372.63,370.69,367.63,364.66,362.79,363.06,363.56,364.02,364.17,363.73,362.57,360.47,358.11,355.72,353.19,350.24,343.48,335.34,329.04,323.16,317.85,312.99,308.81,305.87,302.75,298.83,294.45,290.53,287.12,283.94,281.03,278.56,276.70,275.00,273.41,271.98,270.86,269.76,268.70,267.17,264.63,262.14,260.36,258.97,257.76,256.53,255.16,253.74,252.31,250.90,250.08,249.79,250.15,251.32,252.70,254.33,256.15,257.81,258.33,258.02,257.31,256.68,256.72,258.02,260.64,263.64,266.54,269.26,270.59,271.56,272.60,273.71,274.81,275.94,277.06,278.12,279.14,280.28,281.72,283.61,286.21,289.79,295.00,300.51,304.56,308.05,310.87,313.38,315.80,318.26,320.52,322.59
316.19,319.49,323.77,328.69,332.51,335.76,339.26,343.75,348.50,353.41,358.31,362.87,367.15,369.76,371.04,371.54,371.70,371.26,370.23,368.22,364.40,359.50,354.10,348.32,342.05,336.55,331.42,325.84,319.38,313.08,306.40,300.32,295.05,289.95,284.00,279.27,275.62,271.74,264.20,256.72,250.85,247.22,245.28,243.56,241.76,238.52,231.25,223.69,217.32,211.09,204.60,200.74,199.90,199.90,199.90,199.90,199.90,199.90,199.90,199.90,199.90,198.88,197.06,195.14,195.00,195.00,195.00,195.00,195.00,195.00,195.00,195.00,195.00,195.00,195.00,195.00,195.00,195.00,195.00,195.00,195.00,195.00,195.00,195.00,195.00,195.00,195.00,195.00,195.00,195.00,195.00,195.00,195.00,195.00,195.00,195.00,195.00,195.00,195.00,195.00,195.00,195.00,195.00,195.00,195.00,197.68,202.04,208.82,221.79,229.12,232.76,234.69,236.63,238.61,249.37,261.59,267.62,273.30,279.17,285.31,291.82,298.84,304.99,310.08,314.87,320.26,324.97,329.18,333.20,337.25,341.55,345.58,349.20,352.32,354.89,357.19,359.75,362.85,366.58,370.19,373.59,376.94,380.13,382.74,384.85,386.64,388.05,388.73,388.94,389.02,388.95,388.64,388.13,387.46,386.61,385.59,384.34,382.80,381.42,380.21,379.14,378.16,376.97,375.50,373.82,372.16,369.97,367.89,366.63,367.03,367.49,367.78,367.71,366.99,365.23,362.39,359.10,355.83,352.92,349.16,342.45,334.84,328.94,323.94,319.39,315.07,311.16,308.28,305.21,301.75,298.12,294.69,291.16,287.57,284.16,281.15,278.53,276.68,275.11,273.74,272.84,272.08,271.33,270.16,268.07,265.49,263.46,261.65,259.89,258.36,256.82,255.36,253.97,252.62,251.54,251.51,252.40,254.10,256.04,258.11,260.16,261.83,262.30,261.82,260.78,259.54,258.58,258.81,260.75,263.51,266.58,269.42,270.83,271.91,273.06,274.24,275.37,276.49,277.61,278.75,280.00,281.51,283.14,284.81,286.65,289.29,293.73,298.70,302.45,305.89,308.95,311.72,314.28,316.90,319.34,321.54
318.65,322.50,327.59,331.23,334.06,336.72,339.86,344.43,349.54,354.78,359.87,364.46,368.51,370.73,371.75,372.42,372.51,371.99,371.21,369.98,367.27,362.77,357.82,353.00,348.44,342.82,337.28,331.77,326.04,320.04,313.01,305.62,298.79,293.90,288.77,284.48,281.30,278.73,273.36,264.69,255.54,248.43,246.30,244.57,242.82,240.31,235.30,227.62,220.67,214.23,207.72,201.69,200.05,199.90,199.90,199.90,199.90,199.90,199.90,199.90,199.90,197.36,195.24,195.01,195.00,195.00,195.00,195.00,195.00,195.00,195.00,195.00,195.00,195.00,195.00,195.00,195.00,195.00,195.00,195.00,195.00,195.00,195.00,195.00,195.00,195.00,195.00,195.00,195.00,195.00,195.00,195.00,195.00,195.00,195.00,195.00,195.00,195.00,195.00,195.00,195.00,195.00,195.00,195.00,195.00,197.68,200.15,203.22,216.19,226.30,231.67,233.75,235.71,237.76,246.29,257.01,264.83,270.60,276.57,282.50,288.38,294.98,301.69,307.74,313.26,318.56,323.07,327.24,331.43,335.92,341.05,345.51,349.42,352.86,355.74,358.42,361.35,364.64,368.31,371.75,375.06,378.48,381.88,384.61,387.05,389.17,390.85,391.75,391.99,392.11,392.06,391.69,391.10,390.38,389.47,388.42,387.24,385.74,384.12,382.50,380.98,379.75,378.40,376.88,375.26,373.79,372.38,371.28,370.73,371.06,371.29,371.21,370.82,369.84,367.48,363.94,359.74,355.52,352.09,347.13,340.69,334.05,328.63,324.56,320.90,317.42,314.16,311.22,308.19,305.17,302.27,299.50,296.01,292.22,288.45,284.79,280.94,278.54,276.82,275.47,274.60,273.82,273.05,272.13,270.80,268.78,266.72,264.41,261.93,260.07,258.44,256.95,255.55,254.16,252.85,253.29,254.86,256.97,259.40,261.84,263.90,265.31,265.75,265.30,264.20,262.73,261.21,260.39,261.25,263.38,266.39,269.30,270.95,272.21,273.44,274.66,275.84,276.96,278.11,279.35,280.92,282.86,284.74,286.41,287.95,289.64,292.94,296.90,300.10,303.40,306.68,309.73,312.49,315.25,317.94,320.43
321.65,326.07,330.25,333.21,335.76,338.32,341.27,345.44,350.34,355.56,360.65,364.83,368.60,370.74,371.83,372.63,372.68,372.36,371.76,370.80,369.15,365.36,360.92,356.65,352.91,348.83,343.60,337.74,331.81,326.14,319.81,312.75,305.75,300.71,296.07,291.56,287.40,283.68,278.75,270.91,260.33,249.65,247.26,245.51,243.74,241.71,238.40,231.29,224.12,217.43,210.95,204.22,200.99,199.90,199.90,199.90,199.90,199.90,199.90,199.90,199.90,197.17,195.00,195.00,195.00,195.00,195.00,195.00,195.00,195.00,195.00,195.00,195.00,195.00,195.00,195.00,195.00,195.00,195.00,195.00,195.00,195.00,195.00,195.00,195.00,195.00,195.00,195.00,195.00,195.00,195.00,195.00,195.00,195.00,195.00,195.00,195.00,195.00,195.00,195.00,195.00,195.00,195.00,195.00,195.00,197.68,199.90,201.62,210.44,222.24,229.88,232.91,234.96,237.04,243.10,252.09,261.71,267.68,273.90,280.06,285.75,291.16,298.53,305.11,310.72,316.11,321.09,325.43,329.74,334.59,340.32,345.08,349.16,352.71,355.71,358.74,362.00,365.47,369.04,372.47,375.82,379.27,382.78,386.02,389.09,391.91,394.18,395.33,395.78,395.92,395.76,395.28,394.72,394.00,393.00,391.75,390.33,388.64,386.96,385.28,383.59,382.05,380.76,379.49,378.13,376.75,375.70,374.88,374.38,374.44,374.34,373.96,373.08,371.39,368.93,364.93,360.30,355.56,350.94,344.55,338.77,333.89,329.77,326.59,323.55,320.60,317.79,314.96,312.12,309.38,306.70,304.03,301.28,298.44,294.85,290.13,285.61,281.48,278.64,277.14,276.24,275.44,274.67,273.75,272.48,271.06,268.94,266.43,263.91,261.96,260.10,258.45,256.97,255.53,254.12,254.88,256.82,259.14,262.30,265.33,267.46,268.51,268.73,268.49,267.71,266.41,264.75,263.79,263.53,264.26,266.19,268.93,270.72,272.08,273.33,274.61,275.83,277.09,278.38,279.84,281.97,284.16,286.19,287.98,289.54,290.99,292.99,295.49,298.20,300.98,304.08,307.14,309.97,312.82,315.88,319.01
324.50,328.99,332.24,334.86,337.39,340.00,342.87,346.52,350.96,355.74,360.34,363.90,367.30,369.51,370.89,371.83,371.95,371.85,371.49,370.82,369.82,366.76,363.07,359.41,356.06,352.85,348.52,343.09,336.89,331.25,325.46,319.07,312.45,306.90,302.28,297.42,292.34,287.38,282.24,275.11,264.95,253.49,248.75,246.45,244.68,242.87,240.48,234.68,227.78,220.88,214.24,207.16,202.42,200.20,199.91,199.90,199.90,199.90,199.90,199.75,198.74,196.51,195.00,195.00,195.00,195.00,195.00,195.00,195.00,195.00,195.00,195.00,195.00,195.00,195.00,195.00,195.25,196.27,196.47,196.47,196.47,196.47,196.47,196.47,196.47,196.47,196.47,196.47,196.47,196.47,196.47,196.47,195.73,195.00,195.00,195.00,195.00,195.00,195.00,195.00,195.00,195.00,195.00,195.00,195.00,197.68,199.90,200.72,205.27,217.35,227.11,232.07,234.19,236.29,240.26,247.72,258.73,265.06,271.37,277.75,283.60,288.23,295.37,302.19,308.13,313.54,318.97,323.59,328.04,333.03,339.13,344.19,348.55,352.33,355.43,358.69,362.15,365.69,369.19,372.66,376.04,379.55,383.28,387.13,391.03,394.60,397.47,399.03,399.77,399.94,399.72,399.15,398.47,397.70,396.66,395.31,393.66,391.82,389.94,388.05,386.18,384.59,383.41,382.32,381.22,380.20,379.45,378.76,378.17,377.82,377.16,376.33,374.93,372.65,369.84,365.36,360.37,355.34,350.07,343.34,338.31,334.75,331.80,329.46,327.07,324.71,322.30,319.45,316.56,313.84,311.22,308.57,306.13,303.82,300.66,296.11,291.71,286.27,281.98,279.45,277.95,277.09,276.28,275.30,274.10,272.98,270.84,268.32,265.88,263.86,261.82,259.94,258.24,256.71,255.40,256.33,258.52,261.28,265.10,268.00,269.78,270.52,270.60,270.45,269.98,269.12,267.87,267.11,266.33,266.03,266.72,268.73,270.49,271.96,273.27,274.60,275.92,277.28,278.71,280.40,282.92,285.37,287.58,289.50,291.11,292.53,293.88,295.42,297.49,299.64,302.30,305.13,307.94,310.68,314.01,317.62
327.00,330.97,333.58,336.19,338.85,341.59,344.47,347.59,351.37,355.27,358.85,361.63,364.51,366.83,368.57,369.68,369.96,370.06,370.03,369.76,368.93,366.61,363.90,361.05,357.81,354.56,351.62,347.50,341.30,335.38,329.75,324.10,318.18,311.90,306.84,301.54,295.83,289.95,284.16,277.26,269.19,260.05,250.96,247.50,245.65,243.81,241.60,237.73,231.64,224.65,217.67,210.34,204.39,200.95,199.94,199.90,199.90,199.90,199.90,199.45,196.47,195.23,195.00,195.00,195.00,195.00,195.00,195.00,195.00,195.00,195.13,195.25,195.25,195.25,195.25,195.25,195.95,198.81,199.42,199.46,199.48,199.47,199.47,199.46,199.44,199.44,199.42,199.39,199.38,199.37,199.37,199.37,197.29,195.19,195.02,195.00,195.00,195.00,195.00,195.00,195.00,195.00,195.00,195.00,195.00,197.54,199.72,200.01,201.16,212.11,223.57,231.24,233.38,235.53,238.01,244.24,256.00,262.76,268.99,275.53,281.81,286.28,292.19,299.02,305.66,310.99,316.71,321.70,326.32,331.22,337.38,342.78,347.54,351.69,354.95,358.31,361.79,365.29,368.74,372.34,375.73,379.35,383.46,387.95,392.81,397.12,400.52,402.69,403.82,404.07,403.83,403.21,402.27,401.37,400.33,399.00,397.19,395.30,393.08,390.75,388.68,387.31,386.25,385.27,384.41,384.01,383.55,382.94,382.22,381.34,379.91,378.40,376.47,373.73,370.26,365.22,359.91,354.82,349.73,344.00,339.76,336.84,334.72,333.13,331.45,329.71,327.70,324.77,321.59,318.63,315.90,313.21,310.49,308.03,305.44,302.35,298.86,292.99,287.26,282.85,280.12,278.99,277.98,276.87,275.81,274.66,272.58,270.18,267.84,265.75,263.63,261.45,259.36,257.69,256.72,257.67,260.03,263.47,267.69,269.69,270.68,271.23,271.31,271.09,270.84,270.58,270.23,269.87,269.26,268.55,268.10,268.87,270.40,271.96,273.37,274.76,276.19,277.60,279.13,281.05,283.71,286.44,288.88,290.92,292.57,294.13,295.53,296.84,298.13,299.67,301.69,304.09,306.73,309.13,312.54,316.42
328.52,331.83,334.40,337.05,339.75,342.53,345.44,348.36,351.40,354.13,356.50,358.77,360.69,362.12,363.25,364.26,364.80,365.25,365.51,365.47,364.93,363.41,361.72,359.92,357.65,355.46,353.05,349.85,345.29,339.36,333.74,328.24,322.62,316.71,311.24,305.28,298.72,291.76,285.51,278.99,271.97,263.98,254.28,249.37,246.75,244.88,242.78,240.09,235.29,229.05,221.93,214.29,207.62,202.68,200.00,199.90,199.90,199.90,199.90,199.39,196.05,195.00,195.00,195.00,195.00,195.00,195.00,195.00,195.00,195.00,196.47,197.88,197.88,197.88,197.88,197.88,198.22,199.67,200.43,200.88,201.10,201.03,201.06,200.88,200.70,200.62,200.41,200.18,200.00,199.90,199.90,199.90,198.88,197.08,195.21,195.00,195.00,195.00,195.00,195.00,195.00,195.00,195.00,195.00,195.00,196.11,197.95,199.75,200.37,210.34,222.02,230.71,232.82,234.97,237.15,242.80,253.81,259.94,266.35,273.12,279.48,284.27,289.45,296.28,303.39,308.57,314.15,319.66,324.76,329.56,335.17,340.70,345.81,350.25,353.73,357.10,360.44,363.85,367.45,371.16,374.97,379.07,383.59,388.49,393.91,398.83,402.82,405.55,407.47,408.12,407.98,407.29,406.14,404.87,403.57,402.17,400.46,398.71,396.42,393.86,391.59,390.30,389.50,388.86,388.32,388.03,387.67,387.17,386.37,384.98,383.01,380.77,377.99,374.38,370.24,364.82,359.52,354.86,350.69,346.83,343.46,340.73,338.87,337.50,336.13,334.74,333.21,331.05,328.07,324.82,321.56,318.43,315.56,312.89,310.19,307.28,304.25,299.77,294.71,289.68,285.40,282.75,280.53,278.70,277.54,276.30,274.24,271.97,269.82,267.73,265.62,263.21,260.69,258.71,257.87,258.94,261.59,265.41,268.99,270.44,271.18,271.78,272.14,272.02,271.85,271.68,271.46,271.17,270.74,270.24,269.84,270.09,271.09,272.36,273.69,275.05,276.50,277.95,279.60,281.73,284.44,287.18,289.69,291.87,293.80,295.52,297.06,298.46,299.75,301.24,303.00,304.88,306.77,308.60,311.96,316.02
329.58,332.33,334.87,337.46,339.99,342.60,345.41,348.08,350.54,352.39,353.79,355.35,356.19,356.59,356.92,357.50,358.11,358.85,359.53,359.93,359.89,359.17,358.44,357.64,356.30,355.07,353.19,350.90,347.94,342.57,337.38,332.04,326.47,320.97,315.20,308.64,301.35,293.72,287.12,281.00,274.78,267.73,258.69,253.07,249.09,246.03,243.99,241.91,238.39,233.22,226.28,218.64,211.31,205.11,200.93,200.04,199.90,199.90,199.90,199.39,196.05,195.00,195.00,195.00,195.00,195.00,195.00,195.00,195.09,195.83,198.05,200.00,200.23,200.34,200.44,200.70,201.12,201.54,202.24,202.81,203.02,202.79,202.74,202.38,202.00,201.67,201.10,200.56,200.14,199.90,199.90,199.90,199.90,198.54,195.35,195.00,195.00,195.00,195.00,195.00,195.00,195.00,195.00,195.00,195.00,195.00,196.56,199.65,200.32,209.27,220.75,230.07,232.39,234.55,236.70,241.50,250.62,256.90,263.39,270.17,276.78,282.26,287.18,293.72,300.76,306.06,311.62,317.64,323.23,328.00,333.11,338.63,343.87,348.47,352.13,355.51,358.84,362.32,366.12,370.05,374.37,378.98,383.85,388.98,394.77,400.06,404.48,407.81,410.54,411.86,412.11,411.52,410.40,408.64,406.84,405.23,403.72,402.16,399.80,397.10,394.87,393.64,393.15,392.92,392.76,392.47,392.11,391.47,390.38,388.52,386.10,383.24,379.68,375.18,370.16,364.46,359.45,355.51,352.49,350.24,347.86,345.58,343.93,342.64,341.41,340.19,338.92,337.32,334.82,331.81,328.39,324.48,321.13,318.11,315.14,312.10,309.21,305.81,301.59,296.58,291.33,287.35,284.13,281.63,279.95,278.11,275.96,273.81,271.78,269.72,267.61,265.06,262.29,260.01,259.05,260.37,263.35,267.18,269.82,270.91,271.59,272.28,272.85,272.96,272.87,272.69,272.43,272.13,271.88,271.69,271.56,271.59,272.17,273.13,274.31,275.61,277.00,278.44,280.12,282.28,284.99,287.72,290.30,292.66,294.81,296.73,298.50,300.17,301.73,303.32,304.97,306.46,307.84,309.77,313.27,317.02
330.16,332.62,334.90,337.19,339.22,341.37,343.82,345.98,348.15,349.80,350.75,351.10,350.85,350.43,350.00,349.72,350.01,350.92,352.18,353.51,354.25,354.27,354.39,354.40,353.53,352.61,351.61,350.33,348.27,344.35,340.43,335.54,329.74,324.30,318.47,311.48,303.82,296.27,289.43,283.71,278.27,272.22,264.57,259.69,253.59,247.29,245.16,243.06,240.58,236.65,230.41,223.39,215.34,208.41,203.46,200.50,199.92,199.90,199.88,199.34,196.10,195.08,195.06,195.01,195.07,195.08,195.08,195.08,195.41,198.13,199.60,200.34,201.24,201.63,202.03,203.00,204.54,205.88,206.25,206.24,205.98,205.43,205.07,204.58,203.96,203.14,202.00,201.03,200.32,199.90,199.90,199.84,199.82,198.48,195.34,195.00,195.00,195.00,195.00,195.00,195.00,195.00,195.00,195.00,195.00,195.00,196.56,199.65,200.27,208.11,219.25,229.19,232.10,234.31,236.41,239.66,245.52,253.72,259.92,266.31,273.59,280.21,285.57,291.31,297.43,303.32,309.27,315.74,321.68,326.54,331.53,336.84,341.88,346.40,350.19,353.60,357.22,361.07,365.12,369.47,374.30,379.31,384.36,389.51,395.45,400.74,405.26,409.32,412.70,415.03,416.16,416.00,415.34,413.03,410.46,408.37,407.15,405.75,403.25,400.54,398.77,397.60,397.39,397.60,397.81,397.56,397.03,395.87,394.10,391.81,389.02,385.74,381.67,376.44,370.16,364.36,359.98,357.15,355.31,353.79,352.55,351.38,350.07,348.84,347.61,346.35,344.96,343.20,341.42,339.60,336.84,331.79,327.37,323.76,320.47,317.22,314.13,310.50,306.57,302.25,297.14,292.71,289.30,286.46,283.61,280.30,277.82,275.73,273.71,271.68,269.51,267.02,264.31,261.81,260.41,262.09,265.40,268.68,270.32,271.24,272.00,272.73,273.33,273.81,273.89,273.70,273.40,273.11,273.04,273.06,273.09,273.13,273.63,274.42,275.39,276.58,277.83,279.19,280.72,282.64,285.26,288.01,290.75,293.34,295.52,297.66,299.83,301.97,303.94,305.71,307.35,308.75,310.33,313.63,317.52,320.17
330.08,332.22,333.80,335.54,337.42,339.28,341.06,342.90,344.59,345.67,345.91,345.24,344.42,343.91,343.62,343.49,344.06,345.18,346.57,347.97,348.84,349.45,350.02,350.30,349.73,348.89,347.87,346.71,345.35,343.55,341.22,337.33,332.25,327.77,322.27,315.16,307.38,300.01,292.86,287.13,282.14,277.01,270.25,264.88,256.84,248.47,246.31,244.22,242.03,238.86,233.80,227.34,220.15,212.86,206.36,202.37,200.46,199.90,199.29,197.62,197.49,197.52,196.69,195.49,197.12,197.52,197.52,197.52,197.77,199.81,201.44,202.75,204.09,204.76,205.77,206.93,208.05,208.88,208.95,208.55,207.74,206.48,205.43,204.58,203.74,202.75,201.56,200.66,200.13,199.90,199.70,198.05,197.38,196.72,195.17,195.00,195.00,195.00,195.00,195.00,195.00,195.00,195.00,195.00,195.00,195.00,196.56,199.65,200.31,208.98,220.30,229.68,232.13,234.26,236.32,239.03,243.45,250.29,256.10,262.45,269.89,277.17,283.21,288.92,294.67,300.66,306.95,313.64,319.81,324.99,330.19,335.58,340.54,344.86,348.56,352.21,356.22,360.62,365.36,370.11,375.19,380.20,385.06,390.10,396.12,401.40,405.88,410.15,413.98,417.20,419.40,420.18,420.00,418.47,416.42,414.34,412.60,410.72,408.80,407.05,405.69,404.40,403.32,402.70,402.41,401.67,400.71,399.31,397.37,394.73,391.53,387.60,382.73,376.78,370.48,365.75,362.58,360.57,358.97,357.41,356.45,355.71,354.73,353.84,352.84,351.72,350.39,348.72,347.05,345.21,342.72,338.87,335.02,330.46,326.03,322.46,319.16,315.41,311.53,307.43,302.57,297.89,294.30,291.20,287.67,283.71,280.23,277.47,275.38,273.26,271.26,269.18,266.89,264.44,262.95,263.98,266.56,269.46,270.64,271.47,272.24,272.99,273.69,274.39,274.74,274.76,274.59,274.47,274.50,274.57,274.64,274.71,275.24,275.94,276.74,277.75,278.89,280.20,281.69,283.44,285.63,288.13,290.80,293.51,295.98,298.62,301.15,303.53,305.74,307.78,310.00,312.26,314.61,317.53,320.23,322.00
329.28,331.15,332.12,333.28,334.85,336.27,337.24,338.56,339.58,339.98,339.58,338.30,337.17,336.66,336.63,336.98,338.08,339.55,341.06,342.39,343.24,344.25,345.04,345.38,345.04,344.27,343.14,342.00,341.29,341.37,340.46,337.91,334.16,330.83,326.13,319.31,311.64,304.54,297.27,291.34,286.51,282.04,276.00,269.92,260.83,251.28,247.72,245.38,243.25,240.68,236.93,231.25,224.99,217.67,210.16,205.47,202.23,200.78,199.38,196.82,199.13,199.93,198.53,196.57,199.24,199.89,199.97,200.17,200.56,201.66,203.63,205.75,207.33,208.21,209.58,210.60,210.94,210.88,210.60,209.73,208.26,206.32,204.74,203.59,202.63,201.71,200.76,200.14,199.57,199.12,198.81,196.11,195.01,195.00,195.00,195.00,195.00,195.00,195.00,195.00,195.00,195.00,195.00,195.00,195.00,195.00,196.56,199.65,200.38,210.54,222.15,230.50,232.37,234.36,236.36,238.82,242.46,247.45,252.89,259.18,266.45,274.04,280.75,286.72,292.40,298.33,304.87,311.66,317.99,323.55,329.06,334.65,339.60,343.76,347.38,351.42,355.87,360.78,366.18,371.43,376.73,381.66,386.24,391.22,397.17,402.40,406.85,411.12,415.33,419.21,422.26,424.00,424.43,423.96,422.70,420.80,418.56,416.27,414.87,413.91,412.75,411.31,409.36,407.75,406.64,405.24,403.76,402.13,400.14,397.29,393.62,389.00,383.48,377.23,371.55,368.23,366.30,365.01,363.58,362.04,361.18,360.62,359.87,359.24,358.38,357.24,355.75,353.92,352.12,350.00,347.65,345.23,342.21,337.16,331.94,327.97,324.31,320.46,316.55,312.47,307.85,303.05,299.22,295.76,291.77,287.44,282.99,279.37,276.93,274.74,272.94,271.24,269.38,267.20,265.72,265.88,267.50,269.97,270.92,271.69,272.47,273.25,274.02,274.86,275.47,275.78,275.81,275.93,276.03,276.12,276.19,276.32,276.88,277.54,278.23,279.10,280.16,281.44,282.88,284.46,286.14,288.29,290.86,293.71,296.54,299.61,302.40,304.92,307.35,309.78,312.68,315.77,318.69,320.82,322.25,323.43
326.91,328.73,329.68,330.42,330.93,331.22,331.30,331.33,331.28,330.96,330.35,329.54,328.45,327.56,327.30,328.24,330.16,332.31,334.31,335.91,336.85,337.85,338.50,338.73,338.51,338.06,337.33,336.76,336.75,337.35,337.10,336.35,335.02,332.51,329.72,324.14,317.05,310.40,303.62,297.32,292.03,287.58,282.13,275.84,268.13,259.07,249.84,246.56,244.48,242.42,239.96,235.70,229.23,222.50,216.37,211.06,207.21,204.32,202.00,200.31,200.31,200.11,199.57,199.11,199.75,199.90,200.34,201.31,202.83,204.60,206.64,208.58,210.06,210.95,211.65,212.02,211.87,211.00,210.25,208.48,206.06,203.91,202.64,201.60,200.81,200.34,200.10,199.96,198.27,195.99,195.91,195.26,195.00,195.00,195.00,195.00,195.00,195.00,195.00,195.00,195.00,195.00,195.00,195.00,195.00,195.00,196.56,199.65,200.46,212.38,224.10,231.09,232.93,234.75,236.62,238.85,242.00,246.57,251.80,257.69,264.33,271.53,278.64,285.15,291.13,296.93,303.45,310.17,316.59,322.50,328.40,334.23,339.33,343.57,347.31,351.98,356.89,362.03,367.65,373.72,379.38,384.30,388.73,393.84,399.39,404.48,408.97,413.12,417.70,421.58,424.69,426.99,428.40,428.66,427.84,426.20,424.27,422.36,420.63,419.06,417.55,416.03,414.21,412.22,410.14,408.06,406.08,404.03,401.82,399.10,394.77,389.60,384.12,378.79,374.63,372.63,371.61,370.97,370.33,369.67,369.17,368.65,367.86,366.96,365.77,363.99,361.46,358.47,356.38,354.30,352.02,349.62,346.74,342.94,338.66,334.21,329.72,325.74,321.78,317.57,312.99,308.33,304.03,299.91,295.63,291.10,286.33,281.91,278.38,276.25,274.53,272.82,271.12,269.58,268.13,267.72,268.54,270.36,271.24,272.01,272.81,273.63,274.42,275.25,276.00,276.61,277.02,277.35,277.54,277.65,277.75,277.97,278.52,279.18,279.90,280.78,281.88,283.10,284.38,285.70,287.05,288.78,291.29,294.50,297.68,300.70,303.46,306.06,308.72,311.88,315.17,318.20,320.61,322.17,323.56,324.84
323.79,325.36,326.15,326.64,326.75,326.69,326.55,326.34,325.94,325.27,324.36,323.24,321.56,320.02,319.27,320.01,321.70,324.20,326.55,328.25,329.38,330.32,331.12,331.65,331.63,331.26,331.21,331.53,332.23,333.26,333.64,333.88,333.78,332.32,330.45,326.44,321.16,315.71,309.23,302.86,297.32,292.61,287.38,281.32,274.26,265.78,255.58,248.97,245.72,243.88,241.95,239.04,233.28,227.03,221.28,215.97,212.10,208.92,206.29,204.53,203.74,203.29,203.12,203.19,203.26,203.35,203.85,204.80,206.12,207.78,209.57,211.19,212.35,212.79,212.52,212.06,211.42,210.13,208.61,206.33,203.78,201.85,201.07,200.50,200.09,199.60,198.08,197.73,196.60,195.01,195.00,195.00,195.00,195.00,195.00,195.00,195.00,195.00,195.00,195.00,195.00,195.00,195.00,195.00,195.00,195.00,196.56,200.20,203.69,216.39,226.78,231.77,233.54,235.31,237.12,239.37,242.71,247.47,252.52,258.02,264.18,271.12,278.16,284.97,291.30,296.98,303.10,309.62,316.00,322.09,328.53,334.65,339.79,343.93,347.55,352.48,358.54,365.07,371.51,377.93,383.44,388.23,392.65,397.64,402.84,407.40,411.36,415.15,419.67,423.70,427.19,430.07,431.99,432.49,431.88,430.53,429.02,427.45,425.84,424.16,422.43,420.65,418.48,416.06,413.36,410.20,407.67,405.31,402.88,399.93,395.41,390.37,385.46,381.26,378.59,377.53,377.04,376.69,376.36,376.02,375.64,375.13,374.32,373.34,372.16,370.49,368.19,365.56,363.32,360.26,356.82,354.25,351.34,347.99,344.15,339.77,335.31,331.10,326.88,322.57,318.16,313.32,308.34,303.65,299.52,294.84,289.89,284.95,280.53,277.74,275.79,274.08,272.52,271.30,270.02,269.44,269.74,270.85,271.69,272.46,273.27,274.11,274.88,275.69,276.48,277.19,277.75,278.22,278.53,278.77,279.09,279.81,280.61,281.46,282.27,282.95,283.86,284.97,286.19,287.42,288.63,289.95,292.11,295.19,298.48,301.57,304.38,307.07,309.97,313.63,317.15,320.00,322.01,323.52,324.91,326.20
319.45,320.68,321.28,321.58,321.60,321.52,321.50,321.69,321.44,320.73,319.55,317.84,315.42,313.25,312.00,312.29,313.44,315.99,318.51,320.31,321.72,322.64,323.63,324.53,324.74,324.56,325.23,326.42,327.74,329.10,330.01,330.78,331.29,330.79,329.33,326.95,323.91,320.00,314.07,307.95,302.34,297.28,292.02,286.27,279.57,271.79,262.56,251.82,246.96,245.21,243.49,241.61,237.06,231.40,225.62,220.58,216.85,213.78,211.11,209.02,208.09,207.68,207.58,207.72,207.86,208.05,208.49,209.10,209.75,211.00,212.37,213.49,213.97,213.68,212.44,211.15,209.96,208.34,206.10,203.76,201.67,200.22,199.53,199.34,199.31,198.70,195.85,195.19,195.11,195.00,195.00,195.00,195.00,195.00,195.00,195.00,195.00,195.00,195.00,195.00,195.00,195.00,195.00,195.06,195.47,195.61,197.17,201.58,208.83,221.25,229.53,232.50,234.22,235.97,237.74,240.19,244.13,249.24,254.15,259.33,265.17,271.84,278.69,285.71,292.42,298.11,303.69,309.85,316.08,322.26,329.23,335.58,340.67,344.67,348.37,353.52,360.86,369.00,376.43,383.02,388.26,392.90,397.38,402.13,406.79,410.57,413.77,417.18,421.49,425.73,429.77,433.31,435.39,435.88,435.39,434.33,433.19,431.88,430.51,429.00,427.20,425.20,422.56,419.70,416.53,412.32,409.06,406.35,403.69,400.46,395.96,391.40,387.32,384.26,382.87,382.47,382.31,382.14,381.96,381.68,381.32,380.83,380.07,379.09,378.02,376.69,375.01,373.15,370.84,366.84,362.26,359.40,356.23,352.78,348.94,344.69,340.54,336.23,331.73,327.20,322.92,317.96,312.46,307.37,303.45,298.41,293.36,288.22,283.15,279.21,276.88,275.19,273.80,272.71,271.65,271.08,271.02,271.49,272.22,272.98,273.79,274.62,275.39,276.17,276.94,277.67,278.27,278.83,279.43,280.02,280.73,282.05,283.06,284.06,284.94,285.37,285.97,286.94,288.09,289.29,290.42,291.43,293.14,295.81,299.07,302.30,305.23,308.06,311.22,315.31,318.81,321.42,323.16,324.84,326.27,327.64
311.77,312.54,313.13,313.15,313.03,312.92,313.11,314.42,315.03,314.72,313.54,311.58,308.99,306.68,305.36,305.69,306.82,308.94,311.22,313.28,315.22,316.32,317.18,317.94,318.48,319.21,320.36,321.77,323.29,324.74,325.84,326.83,327.56,327.27,326.06,324.91,323.57,321.20,317.22,312.06,306.69,301.44,295.92,289.91,283.70,276.93,268.04,254.22,248.13,246.52,245.08,243.13,240.15,235.65,230.09,225.25,221.19,217.80,215.07,213.20,212.06,211.44,211.22,211.32,211.42,211.53,211.92,212.48,212.93,213.93,214.86,214.95,213.70,212.45,210.80,208.92,206.89,204.74,202.42,201.05,200.41,199.63,197.12,196.33,196.33,196.14,195.22,195.00,195.00,195.00,195.00,195.00,195.00,195.00,195.00,195.00,195.00,195.00,195.00,195.00,195.00,195.00,195.00,195.35,197.76,198.57,200.11,205.22,215.88,225.66,231.22,233.27,234.98,236.69,238.41,241.27,246.23,251.32,256.14,261.31,267.10,273.32,280.32,287.63,294.72,300.90,306.10,311.53,317.32,323.59,330.69,336.96,341.89,346.03,350.92,356.81,364.63,373.21,381.20,388.19,393.53,398.23,402.75,407.21,410.49,413.20,415.91,419.23,423.39,427.87,432.55,436.87,438.74,439.13,438.79,437.98,436.78,435.44,434.13,432.84,431.46,429.61,426.86,423.69,420.08,415.52,410.99,407.49,404.67,401.49,397.01,393.09,389.95,387.75,386.80,386.72,386.83,386.96,387.14,386.91,386.59,386.21,385.65,384.69,383.63,382.22,380.33,378.19,375.91,372.89,369.44,366.20,362.10,357.81,353.20,348.26,344.05,340.32,335.82,330.61,325.98,321.69,316.74,311.79,307.46,301.17,296.09,291.44,286.38,280.60,277.85,276.32,275.14,274.09,273.20,272.56,272.31,272.55,272.89,273.52,274.30,275.13,275.91,276.68,277.45,278.17,278.79,279.39,280.90,282.55,284.00,285.54,286.10,286.76,287.57,287.89,288.20,288.92,289.91,290.96,291.96,292.94,294.26,296.26,299.39,302.84,306.03,309.14,312.69,317.22,320.25,322.41,324.25,325.96,327.57,329.46
305.79,305.77,305.52,305.07,304.81,304.75,305.11,306.61,307.64,307.87,307.15,305.38,303.10,300.99,299.74,300.06,301.21,303.10,305.17,307.16,309.04,310.14,310.88,311.57,312.50,313.67,315.04,316.55,318.15,319.63,320.93,322.08,322.91,322.94,322.27,321.86,321.33,319.74,316.90,313.19,308.85,303.88,298.32,292.40,286.55,280.39,272.30,259.27,251.52,248.14,246.71,244.56,242.13,238.53,233.85,229.59,225.81,222.28,219.25,217.25,215.76,214.75,214.30,214.34,214.32,214.45,214.84,215.40,215.79,215.73,215.43,214.44,212.36,210.20,207.99,205.68,203.48,201.95,200.49,199.06,198.08,197.77,195.68,195.00,195.00,195.00,195.00,195.00,195.00,195.00,195.00,195.00,195.00,195.00,195.00,195.00,195.00,195.00,195.00,195.00,195.00,195.00,195.42,196.94,199.21,200.47,203.75,211.43,222.44,229.07,232.44,234.11,235.79,237.51,239.74,243.29,248.68,253.62,258.50,263.81,269.66,275.71,282.40,289.75,297.12,303.49,308.53,313.61,319.34,325.90,332.66,338.88,344.23,349.15,354.88,361.10,368.91,377.52,385.75,392.38,397.61,402.38,406.93,410.79,413.38,415.63,418.15,421.51,425.53,430.32,435.30,439.56,441.40,441.76,441.66,441.36,440.65,439.26,437.90,436.73,435.61,433.90,431.14,427.78,423.93,419.39,414.20,409.84,406.37,403.10,399.16,396.21,394.14,392.84,392.37,392.43,392.63,392.86,393.09,393.02,392.88,392.68,392.21,391.20,389.88,388.23,386.16,383.67,381.14,378.35,375.23,371.68,367.27,362.44,357.21,351.71,347.08,343.35,339.15,334.07,328.68,324.38,319.79,315.02,310.24,303.50,298.19,293.74,289.13,283.06,279.47,277.56,276.49,275.54,274.74,274.01,273.66,273.87,274.06,274.32,274.86,275.65,276.42,277.17,277.93,278.67,279.50,281.39,283.98,286.15,287.48,288.67,288.89,289.22,289.75,290.00,290.13,290.71,291.58,292.52,293.48,294.45,295.54,297.06,299.75,303.26,306.81,310.47,314.59,318.84,321.39,323.29,325.18,327.01,329.08,331.86
301.29,300.37,298.88,297.87,297.46,297.50,298.04,299.08,300.18,300.89,300.85,299.53,297.85,296.10,294.91,295.09,296.25,298.10,300.06,301.83,303.23,304.15,304.75,305.40,306.63,307.84,309.26,310.80,312.34,313.80,315.34,316.68,317.64,318.07,318.08,318.00,317.61,316.28,313.98,311.88,308.99,304.65,299.34,293.86,288.31,282.48,275.58,266.00,256.59,250.27,248.43,245.99,243.42,240.42,237.01,233.66,230.56,227.07,223.69,221.32,219.45,217.94,217.10,217.00,216.88,217.08,217.40,217.73,217.84,216.26,214.35,212.37,210.08,207.14,204.49,202.12,200.31,199.77,199.54,197.57,195.36,195.32,195.08,195.00,195.00,195.00,195.00,195.00,195.00,195.00,195.00,195.00,195.00,195.00,195.00,195.00,195.00,195.00,195.00,195.00,195.00,195.20,196.37,199.20,199.96,202.02,208.20,218.88,227.84,231.45,233.32,234.97,236.62,238.38,241.53,246.00,251.39,256.19,261.27,266.82,272.75,278.72,284.75,291.94,299.52,305.82,310.98,316.10,322.02,328.84,334.98,341.26,347.39,353.39,359.56,365.77,373.41,381.86,389.89,395.69,400.64,405.44,409.94,413.13,415.65,417.99,420.61,424.08,428.04,433.10,437.97,441.55,443.50,443.98,444.21,444.54,444.66,443.39,442.05,440.92,439.87,438.20,435.44,431.98,428.01,423.67,418.37,413.28,408.85,405.30,402.23,400.37,399.33,398.89,398.91,399.06,399.22,399.36,399.47,399.58,399.66,399.61,399.16,398.09,396.45,394.58,392.47,389.74,386.73,383.44,379.89,376.09,371.78,366.67,361.00,355.08,349.82,345.65,341.84,337.47,331.20,326.33,321.86,317.26,312.04,305.40,299.79,295.32,291.42,286.31,281.86,279.20,277.94,277.06,276.27,275.45,275.06,275.37,275.59,275.38,275.53,276.20,276.96,277.67,278.44,279.30,280.71,284.51,287.98,290.12,290.79,291.30,291.36,291.39,291.56,291.77,291.81,292.34,293.14,294.04,295.01,295.96,296.94,298.21,300.42,303.89,307.80,312.07,316.73,320.16,322.28,324.06,325.99,328.01,330.77,334.61
296.93,295.91,294.38,293.10,292.46,292.57,293.46,294.60,295.59,296.20,296.19,295.26,293.81,292.08,290.62,290.26,291.31,293.24,295.40,297.37,298.48,299.06,299.34,299.61,300.29,301.67,303.14,304.48,305.68,307.04,308.81,310.64,312.20,312.98,313.12,312.96,312.51,311.58,310.21,308.86,306.67,303.08,298.52,293.80,288.84,283.61,277.94,271.11,261.78,253.94,250.57,247.56,244.97,242.35,239.75,237.60,234.78,231.62,228.50,225.91,224.04,222.11,220.50,219.66,219.76,220.09,219.67,218.42,216.59,214.17,211.90,209.44,206.35,203.03,201.47,200.57,199.38,197.13,196.69,195.90,195.00,195.00,195.00,195.00,195.00,195.00,195.00,195.00,195.00,195.00,195.00,195.00,195.00,195.00,195.00,195.00,195.00,195.00,195.00,195.00,195.00,196.47,198.60,199.87,200.92,206.73,215.05,223.53,229.50,232.13,233.90,235.65,237.34,239.19,243.33,248.83,254.40,259.47,264.98,270.76,276.50,281.69,287.05,294.14,301.88,308.18,313.90,319.58,325.52,331.68,337.44,344.21,350.77,356.87,363.00,369.34,377.51,385.96,392.74,398.13,402.86,407.38,411.60,414.97,417.81,420.61,423.63,427.21,431.66,436.26,440.31,443.34,445.44,446.40,447.05,447.65,448.07,447.85,447.27,446.37,444.95,442.97,440.07,436.41,432.19,427.89,422.88,417.77,412.88,408.70,406.10,404.66,403.97,403.90,404.24,404.52,404.70,404.81,404.94,405.00,404.89,404.62,404.16,403.42,402.13,400.60,398.84,396.44,392.87,388.77,384.54,380.31,375.66,370.42,364.47,357.98,352.36,347.80,344.00,339.95,333.63,328.09,323.54,319.03,313.32,306.48,300.88,296.63,293.35,289.58,285.87,282.56,279.97,278.57,277.70,276.87,276.54,276.99,277.19,276.81,276.64,276.94,277.65,278.35,279.25,280.88,283.97,288.00,290.68,292.16,292.76,293.07,293.07,293.06,293.13,293.34,293.38,293.89,294.71,295.62,296.57,297.50,298.47,299.84,302.56,306.07,309.94,314.15,318.55,321.12,322.80,324.59,326.80,328.92,332.69,337.14
292.53,291.53,290.24,288.90,288.24,288.35,289.24,290.41,291.16,291.51,291.37,290.44,289.06,287.44,285.99,285.35,286.02,287.80,290.19,292.69,294.11,294.55,294.61,294.57,294.80,296.17,297.54,298.76,299.91,301.21,302.84,304.58,306.16,307.06,307.41,307.41,307.19,306.84,306.31,305.46,303.71,300.68,296.67,292.56,288.35,283.95,279.22,274.14,265.17,256.76,252.63,249.17,246.47,244.00,241.82,240.46,238.31,235.98,233.44,230.56,228.56,226.32,224.22,222.78,222.45,222.06,220.47,217.65,214.17,211.16,208.52,205.86,202.99,200.47,199.02,198.44,197.85,195.47,195.00,195.00,195.00,195.00,195.00,195.00,195.00,195.00,195.00,195.00,195.00,195.00,195.00,195.00,195.00,195.00,195.00,195.00,195.00,195.00,195.00,195.08,196.00,198.03,199.98,200.71,204.13,212.16,220.42,226.09,229.94,232.26,234.21,236.16,238.14,240.91,246.11,252.32,258.07,263.47,269.30,275.00,280.19,284.66,289.92,296.89,304.54,311.16,317.15,323.01,328.84,334.64,340.40,347.12,353.64,359.83,366.30,372.84,381.30,389.48,394.95,399.91,404.48,408.84,412.99,416.79,420.00,423.18,426.46,429.98,434.40,438.62,442.32,445.28,447.39,448.86,450.13,451.25,451.87,452.13,451.85,450.97,449.38,447.42,444.66,440.89,436.29,431.98,427.35,422.39,417.46,413.38,410.98,409.70,409.07,409.00,409.52,409.93,410.16,410.29,410.37,410.30,409.98,409.52,408.95,408.20,407.14,405.86,404.28,401.98,398.30,393.79,388.89,383.98,378.90,373.48,367.29,360.37,354.56,349.75,345.73,341.62,335.51,329.44,324.76,320.34,314.50,307.51,301.72,297.53,294.81,292.26,289.64,286.81,284.08,282.06,280.31,278.74,278.00,278.50,278.79,278.25,277.75,277.75,278.46,279.54,281.12,283.59,287.38,290.98,292.83,293.85,294.50,294.71,294.70,294.68,294.72,294.87,294.93,295.40,296.20,297.19,298.14,299.29,300.53,302.19,305.18,308.30,311.62,315.23,318.94,321.02,322.74,324.90,327.63,330.24,334.80,339.47
288.04,287.06,286.11,284.93,284.47,284.53,284.99,286.00,286.32,286.33,285.97,284.68,283.30,281.98,280.92,280.41,280.49,281.84,284.34,287.53,289.81,290.46,290.47,290.32,290.41,291.55,292.71,293.95,295.41,296.73,297.80,298.79,299.73,300.51,301.20,301.63,301.96,302.30,302.37,301.84,300.37,297.68,293.94,290.26,286.90,283.52,279.37,275.02,266.67,258.63,254.52,250.77,247.84,245.30,243.21,242.07,241.04,239.97,238.20,235.05,232.68,230.20,227.92,226.09,224.47,222.43,219.32,215.27,210.89,207.50,204.46,201.97,200.46,199.75,197.18,195.53,195.44,195.07,195.00,195.00,195.00,195.00,195.00,195.00,195.00,195.00,195.00,195.00,195.00,195.00,195.00,195.00,195.00,195.00,195.00,195.00,195.00,195.00,195.00,195.23,197.99,199.61,200.23,202.25,209.78,217.67,223.56,226.86,229.79,232.19,234.42,236.66,239.28,243.82,250.06,256.62,262.48,268.20,274.11,279.37,283.70,287.74,293.51,300.32,307.61,314.86,320.67,326.17,331.80,337.67,343.70,349.74,355.86,362.30,369.55,376.36,384.66,392.20,396.61,401.08,405.49,409.90,414.30,418.63,422.18,425.55,428.88,432.16,435.91,439.98,444.00,447.45,449.48,451.39,453.45,455.34,456.14,456.07,455.43,454.34,452.85,451.30,449.02,445.33,440.39,435.95,431.64,426.90,422.32,419.16,416.80,415.53,414.79,414.43,415.00,415.51,415.85,416.03,416.02,415.73,415.24,414.61,413.79,412.60,411.50,410.25,408.55,405.97,402.68,398.21,392.78,386.92,381.42,375.72,369.28,362.14,356.36,351.43,346.98,342.43,336.65,330.28,325.45,321.17,315.64,308.67,302.47,298.13,295.91,294.34,292.91,291.71,290.32,287.80,284.53,281.50,279.84,280.15,280.55,279.73,278.90,278.71,279.45,281.29,284.04,287.26,290.49,293.25,294.61,295.47,296.21,296.34,296.35,296.35,296.35,296.39,296.50,296.88,297.62,298.76,299.85,301.44,303.22,305.27,308.01,310.28,312.58,315.11,317.84,319.86,322.17,325.05,328.48,332.02,337.01,341.54
283.58,282.52,281.66,280.75,280.56,280.74,280.98,281.21,280.84,280.34,279.71,278.48,277.72,276.98,276.40,276.29,276.51,277.49,279.35,281.87,283.90,285.16,285.67,285.85,286.36,287.39,288.71,290.23,291.85,293.18,294.20,295.06,295.79,296.43,297.02,297.38,297.66,298.04,298.03,297.50,296.24,294.04,291.02,288.14,285.36,282.46,279.11,275.58,270.12,263.25,256.26,252.21,249.05,246.54,244.70,243.58,242.75,241.85,240.51,238.27,235.36,232.30,229.19,226.09,223.07,219.37,215.09,210.70,206.96,203.64,201.61,200.49,199.60,197.54,195.81,195.00,195.00,195.00,195.00,195.00,195.00,195.00,195.00,195.00,195.00,195.00,195.00,195.00,195.00,195.00,195.00,195.00,195.00,195.00,195.00,195.00,195.00,195.00,195.00,195.26,198.36,199.90,201.09,205.78,214.59,221.07,225.46,228.54,231.25,233.65,235.92,238.52,242.43,247.94,254.58,261.33,267.38,273.00,278.51,283.22,287.15,291.62,297.73,304.40,311.36,318.45,323.77,329.06,334.53,339.96,344.92,351.04,357.79,364.85,372.05,379.03,386.60,393.25,397.53,401.88,406.20,410.66,415.30,419.88,423.59,427.08,430.51,433.78,437.20,441.37,445.79,449.78,452.40,454.69,456.91,458.81,459.55,459.31,458.45,457.22,455.73,454.14,452.19,449.40,445.38,440.10,435.37,430.72,426.46,423.50,421.70,420.83,420.38,420.23,420.88,421.44,421.90,422.23,422.24,421.85,420.97,419.70,418.15,416.65,415.28,413.78,411.83,409.07,405.57,401.03,395.41,388.75,382.97,376.74,369.90,362.91,357.52,352.56,347.58,342.32,336.43,330.43,325.68,321.50,316.61,310.20,304.10,299.98,298.32,297.43,296.67,296.08,295.27,293.40,290.91,287.98,285.68,284.70,283.84,282.39,281.24,280.80,281.23,283.25,285.99,289.17,292.62,295.13,296.44,297.30,297.93,297.96,297.96,297.96,297.96,297.97,298.07,298.38,299.16,300.63,302.53,304.31,306.15,308.14,310.16,311.91,313.66,315.54,317.60,319.54,322.28,325.55,329.30,333.65,338.58,342.89
279.13,278.03,277.22,276.50,276.30,276.30,276.18,275.69,274.86,274.10,273.40,272.48,272.26,272.01,271.87,272.20,272.72,273.50,274.74,276.46,278.06,279.75,280.87,281.56,282.40,283.39,284.84,286.53,288.19,289.58,290.69,291.59,292.29,292.83,293.29,293.48,293.58,293.76,293.52,293.01,292.02,290.37,288.13,286.00,283.67,281.10,278.34,275.44,272.21,266.48,257.78,253.60,250.25,247.77,246.19,244.97,243.96,242.85,241.65,240.11,236.74,232.94,228.80,224.23,219.50,214.84,210.29,206.23,203.39,200.83,199.37,198.78,198.31,195.69,195.00,195.00,195.00,195.00,195.00,195.00,195.00,195.00,195.00,195.00,195.00,195.00,195.00,195.00,195.00,195.00,195.00,195.00,195.00,195.00,195.00,195.00,195.00,195.00,195.19,196.16,198.70,200.19,202.60,209.76,218.19,223.16,226.44,229.44,232.18,234.95,237.81,241.24,246.41,252.49,259.36,266.10,271.94,277.41,282.67,287.12,290.94,295.68,302.04,308.68,315.28,321.70,326.56,331.75,337.05,341.87,345.81,352.45,359.94,367.31,374.27,381.41,388.19,393.99,398.31,402.64,406.77,411.18,415.99,420.71,424.58,428.29,431.95,435.38,438.81,443.18,447.79,451.91,455.11,457.61,459.72,461.39,462.19,462.00,461.12,459.88,458.48,456.77,455.00,452.92,449.88,444.70,439.58,434.86,430.76,427.78,426.32,425.84,425.88,426.31,427.16,427.77,428.27,428.61,428.46,427.94,426.75,425.04,423.00,421.21,419.27,417.14,414.74,411.79,407.91,403.11,397.28,390.20,383.89,377.22,370.27,363.63,358.57,353.42,347.90,342.03,336.01,330.42,325.78,321.64,317.21,311.58,306.07,302.42,301.24,300.91,300.73,300.48,299.94,298.78,297.30,294.86,292.09,289.51,287.09,285.09,283.98,283.72,283.87,285.32,287.58,290.63,294.45,296.99,298.33,299.20,299.79,299.86,299.86,299.85,299.85,299.87,299.95,300.74,302.10,303.93,305.89,307.44,308.99,310.62,312.05,313.46,314.89,316.37,318.02,320.00,322.93,326.35,330.25,335.16,339.87,343.95
274.66,273.64,272.87,272.16,271.43,270.68,269.89,268.97,268.22,267.66,267.25,266.88,266.81,266.76,266.94,267.65,268.51,269.40,270.45,271.72,272.99,274.65,276.30,277.67,278.49,279.47,280.85,282.42,283.98,285.49,286.71,287.72,288.54,289.07,289.50,289.58,289.47,289.35,288.90,288.55,287.97,286.89,285.36,283.68,281.72,279.45,276.81,274.14,271.01,266.00,258.89,254.95,251.44,248.98,247.58,246.14,244.65,243.12,241.62,239.89,236.22,231.59,226.31,220.30,213.43,209.09,205.76,202.89,200.81,200.02,197.73,195.71,195.62,195.13,195.00,195.00,195.00,195.00,195.00,195.00,195.00,195.00,195.00,195.00,195.00,195.00,195.00,195.00,195.00,195.00,195.00,195.00,195.00,195.00,195.00,195.00,195.00,195.03,195.76,198.65,199.68,201.06,205.12,213.75,219.94,223.68,226.26,228.56,231.53,235.42,239.88,244.97,251.06,257.28,264.28,270.74,275.60,281.02,286.51,291.27,295.29,299.75,306.27,313.02,319.19,324.36,328.97,334.20,339.24,343.40,347.00,354.62,362.57,369.63,376.32,383.55,389.71,394.81,399.15,403.46,407.23,411.40,416.25,420.98,425.10,429.24,433.38,437.15,441.10,445.75,450.13,453.63,457.07,459.49,461.26,462.64,463.77,463.97,463.37,462.39,461.25,459.45,457.64,455.58,453.07,450.01,444.91,439.91,435.72,432.58,430.86,430.58,431.32,432.72,433.99,434.64,435.00,435.06,434.43,433.69,432.45,430.81,428.92,426.80,423.83,420.57,417.34,414.16,409.85,404.48,398.28,391.40,384.05,377.21,370.76,364.73,359.66,354.04,347.98,341.75,335.83,330.41,325.82,321.62,317.26,312.53,308.27,305.44,304.48,304.68,305.11,305.13,304.67,303.87,302.81,300.90,297.86,293.66,289.70,287.44,286.99,287.66,287.72,287.53,288.96,292.03,296.13,298.94,300.30,301.16,301.90,302.24,302.31,302.28,302.25,302.33,302.46,304.58,307.45,309.57,310.05,310.75,311.57,312.48,313.74,315.00,316.32,317.70,319.30,321.53,324.29,327.52,331.44,336.50,340.90,344.75
269.27,268.28,267.50,266.69,265.88,265.06,264.06,262.37,260.58,258.87,257.37,256.35,256.16,256.08,256.34,257.75,261.34,263.77,265.39,266.63,267.85,269.55,271.45,273.25,274.51,275.59,276.89,278.34,279.85,281.34,282.40,283.30,284.14,284.77,285.14,285.24,285.21,285.17,284.83,284.70,284.40,283.63,282.41,280.87,279.19,277.33,275.10,272.83,269.44,264.65,258.92,255.28,251.83,249.28,247.64,245.85,243.98,242.27,240.36,237.50,233.26,227.43,220.94,214.50,209.02,205.28,202.73,201.00,199.86,198.05,196.17,195.00,195.00,195.00,195.00,195.00,195.00,195.00,195.00,195.00,195.00,195.00,195.00,195.00,195.00,195.00,195.00,195.00,195.00,195.00,195.00,195.00,195.00,195.00,195.00,195.00,195.00,195.92,197.84,199.56,199.90,203.27,209.76,217.53,221.64,224.50,226.85,229.21,233.01,237.89,243.42,249.29,255.23,261.16,267.32,272.90,277.51,283.52,289.09,293.76,298.03,303.66,310.01,316.09,321.59,326.43,331.33,336.50,341.21,345.05,349.00,357.08,365.09,371.87,378.33,384.50,390.13,395.27,399.85,403.93,407.47,411.60,416.54,421.26,425.51,430.03,434.78,439.35,443.65,448.02,451.98,455.24,458.55,460.88,462.61,464.01,465.27,466.01,465.88,465.19,464.12,462.25,460.40,458.46,456.37,454.09,450.11,445.98,442.26,439.31,437.72,437.43,438.02,439.19,440.07,440.38,440.47,440.30,439.49,438.48,437.17,435.55,433.53,431.03,427.91,424.30,420.31,416.25,411.46,405.68,399.17,392.18,384.39,377.66,371.61,365.86,360.60,354.61,348.23,341.83,335.89,330.51,325.93,321.82,317.83,313.76,310.28,308.17,307.75,308.25,308.91,309.42,309.63,309.28,308.39,306.40,303.14,298.58,293.86,291.32,290.62,290.93,290.60,289.94,291.04,293.91,297.82,300.38,301.81,302.90,303.93,304.70,304.99,305.10,305.23,305.49,305.59,306.95,309.19,311.54,312.63,313.30,313.84,314.47,315.54,316.75,318.03,319.40,321.02,323.32,325.93,328.92,332.63,337.50,341.66,345.34
261.06,260.14,259.44,258.63,257.95,257.29,256.34,254.31,251.89,249.41,247.17,245.69,245.41,245.28,245.50,247.23,252.52,255.94,257.92,259.26,261.05,263.52,266.15,268.57,270.33,271.58,272.88,274.31,275.82,277.28,278.17,278.94,279.75,280.41,280.70,280.83,280.93,281.00,280.82,280.83,280.66,280.07,279.05,277.64,276.25,274.83,273.04,270.95,267.13,262.31,257.57,254.48,251.50,249.05,247.11,245.02,242.90,240.78,238.08,233.95,229.01,222.24,215.12,209.03,205.43,202.47,200.32,199.13,198.80,196.09,195.01,195.00,195.00,195.00,195.00,195.00,195.00,195.00,195.00,195.00,195.00,195.00,195.00,195.00,195.00,195.00,195.00,195.00,195.00,195.00,195.00,195.00,195.00,195.00,195.00,195.00,195.46,197.29,199.78,199.93,200.33,206.16,214.78,220.72,223.25,225.50,227.86,230.67,235.34,240.99,247.13,253.27,258.75,264.15,269.26,273.97,278.61,285.24,290.87,295.48,300.07,307.00,313.04,318.38,323.36,328.25,333.58,338.68,343.10,346.86,351.41,359.63,367.43,373.87,380.02,385.15,390.41,395.70,400.48,404.25,407.66,411.80,416.85,421.59,425.94,430.82,436.17,441.45,445.99,449.94,453.46,456.59,459.68,461.96,463.80,465.38,466.74,467.94,468.30,467.96,466.96,465.15,463.28,461.47,459.67,457.73,455.05,452.01,448.97,446.39,445.03,444.65,444.90,445.55,445.86,445.73,445.46,445.02,444.05,442.79,441.38,439.67,437.39,434.53,431.38,427.56,422.94,418.01,412.87,406.79,399.93,392.69,384.78,378.22,372.46,366.91,361.44,355.13,348.56,342.10,336.11,330.67,326.06,322.07,318.44,314.94,312.27,310.95,311.14,311.88,312.68,313.70,314.66,314.87,314.01,311.74,308.33,303.85,298.69,295.67,294.30,293.85,293.12,292.35,293.06,295.41,298.97,301.30,303.09,304.61,305.92,307.08,307.66,308.02,308.36,308.82,308.90,309.18,310.31,312.61,314.64,315.54,316.00,316.50,317.42,318.63,319.99,321.43,323.04,325.20,327.70,330.52,333.94,338.39,342.27,345.81
245.04,244.46,244.06,243.68,243.35,242.97,242.45,241.72,240.91,240.11,239.46,239.20,239.10,239.05,239.14,239.72,241.43,242.76,243.79,245.28,249.18,254.66,259.76,263.63,265.64,267.18,268.71,270.35,272.07,273.55,274.52,275.29,275.96,276.39,276.51,276.62,276.70,276.66,276.50,276.34,276.00,275.37,274.53,273.56,272.58,271.55,270.12,267.28,262.92,257.78,253.03,251.18,249.78,248.06,245.96,243.87,241.83,238.37,233.84,228.87,223.08,216.50,210.65,206.30,202.80,200.89,198.43,195.99,195.91,195.26,195.00,195.00,195.00,195.00,195.00,195.00,195.00,195.00,195.00,195.00,195.00,195.00,195.00,195.00,195.00,195.00,195.00,195.00,195.00,195.00,195.00,195.00,195.00,195.00,195.00,195.03,197.32,199.27,199.88,200.07,202.08,209.90,219.01,222.28,224.56,226.74,229.48,233.28,238.29,244.09,249.99,255.65,260.77,265.24,269.60,274.00,278.86,285.61,291.42,296.36,301.45,308.80,314.37,319.45,324.58,329.91,335.55,340.60,344.98,349.05,354.35,362.21,369.35,375.16,380.83,386.00,391.25,396.40,400.97,404.51,407.85,412.05,417.20,422.07,426.50,431.77,437.58,442.87,447.40,451.05,454.25,457.28,460.19,462.54,464.65,466.59,468.18,469.47,470.19,470.33,469.67,468.21,466.47,464.68,462.93,461.22,459.30,457.04,454.69,452.74,451.56,451.07,451.13,451.54,451.47,450.94,450.20,449.24,447.85,446.52,444.89,442.84,440.21,437.00,433.36,429.11,424.19,419.04,414.00,407.76,400.45,392.79,385.12,378.67,373.01,367.64,362.10,355.54,348.91,342.60,336.60,330.91,326.22,322.25,318.67,315.69,314.37,314.19,314.84,315.93,316.92,318.22,319.70,320.63,319.73,317.16,313.66,309.44,304.17,300.04,297.53,296.35,295.46,294.62,294.29,295.29,298.41,301.11,304.07,306.45,307.86,309.14,310.18,310.89,311.43,312.07,312.23,312.35,312.90,314.27,316.35,317.50,318.12,318.60,319.44,320.80,322.45,324.09,325.54,327.17,329.60,332.49,335.70,339.28,342.73,346.11
238.12,237.73,237.50,237.32,237.09,236.76,236.35,236.01,235.69,235.47,235.41,235.54,235.56,235.54,235.59,235.85,236.34,236.98,237.69,238.88,241.80,245.80,249.51,252.92,256.74,261.17,264.18,266.27,268.03,269.52,270.54,271.34,271.98,272.28,272.33,272.31,272.20,271.98,271.67,271.26,270.74,270.11,269.40,268.67,267.82,266.81,265.29,262.36,258.21,253.85,250.41,249.15,248.29,246.81,244.66,242.46,239.45,234.83,229.34,223.88,217.88,212.09,207.22,203.69,201.10,198.78,196.59,195.00,195.00,195.00,195.00,195.00,195.00,195.00,195.00,195.00,195.00,195.00,195.00,195.00,195.00,195.00,195.00,195.00,195.00,195.00,195.00,195.00,195.00,195.00,195.00,195.00,196.09,197.16,197.16,197.18,198.79,199.90,199.90,200.15,203.18,210.90,219.24,222.37,224.69,226.84,229.67,233.91,239.77,245.45,251.06,256.53,261.36,265.31,269.21,273.53,278.76,285.27,291.08,296.47,302.20,309.55,315.12,320.40,325.83,331.39,337.21,342.28,346.87,351.46,357.20,364.56,371.00,376.25,381.65,386.88,392.10,397.08,401.41,404.82,408.05,412.38,417.85,422.71,427.44,432.86,438.61,443.77,448.26,451.73,454.77,457.75,460.57,462.99,465.27,467.45,469.28,470.70,471.82,472.36,471.87,470.67,469.32,467.86,466.28,464.70,463.19,461.42,459.62,458.28,457.26,456.67,456.65,457.09,456.96,456.38,455.35,453.87,451.97,450.10,447.96,445.37,442.10,438.33,434.17,429.56,424.48,419.17,414.14,408.21,401.20,393.34,385.56,378.98,373.26,367.97,362.42,355.69,349.00,342.76,336.76,331.11,326.53,322.77,319.64,317.60,317.10,317.63,318.90,320.44,322.21,324.04,325.75,326.82,325.86,323.25,319.64,315.21,310.12,305.46,301.82,299.33,297.69,296.70,296.06,296.26,298.09,300.33,304.59,308.19,309.94,311.43,312.68,313.55,314.20,314.94,315.41,315.72,316.16,317.08,318.63,319.92,320.89,321.64,322.51,323.71,325.23,326.86,328.42,330.40,332.93,335.58,338.13,340.56,343.29,346.38
235.40,235.13,235.01,234.92,234.67,234.29,233.84,233.44,233.11,232.96,233.00,233.15,233.24,233.25,233.32,233.64,234.00,234.61,235.30,236.07,237.06,238.19,239.35,241.53,246.81,253.73,258.36,261.26,263.31,264.94,266.15,267.10,267.76,267.96,267.95,267.74,267.38,266.95,266.43,265.82,265.22,264.65,264.09,263.49,262.67,261.52,259.76,257.01,253.50,250.37,248.53,247.50,246.78,245.44,243.33,240.87,236.38,230.79,224.89,219.13,213.30,208.41,204.39,201.36,199.55,196.66,195.11,195.00,195.00,195.00,195.00,195.00,195.00,195.00,195.00,195.00,195.00,195.00,195.00,195.00,195.00,195.00,195.00,195.00,195.00,195.00,195.00,195.00,195.00,195.00,195.05,195.44,197.67,199.71,199.71,199.71,199.82,199.90,199.90,200.19,203.64,210.43,217.67,221.54,223.96,226.10,228.86,233.08,239.58,245.23,250.83,256.40,261.10,264.77,268.42,272.75,278.31,284.49,290.32,296.21,302.58,309.76,315.57,321.19,326.92,332.62,338.55,343.73,348.61,353.72,359.71,366.60,372.42,377.17,382.38,387.70,392.90,397.72,401.80,405.11,408.23,412.75,418.65,423.52,428.63,434.04,439.46,444.39,448.80,452.15,455.11,458.08,460.87,463.36,465.76,468.09,470.11,471.69,473.18,474.15,473.96,473.15,472.32,471.34,470.08,468.52,467.09,465.59,464.22,463.43,462.55,461.87,461.71,462.10,461.92,461.26,460.03,458.21,455.94,453.37,450.57,447.31,443.24,438.87,434.28,429.38,424.08,418.61,413.55,408.16,401.92,394.19,386.22,379.34,373.39,368.02,362.48,355.64,348.92,342.76,336.83,331.35,327.02,323.74,321.50,320.51,320.52,321.50,323.40,325.44,328.14,330.58,332.44,333.37,332.44,329.95,326.10,321.02,316.25,311.45,306.93,303.06,300.43,299.08,298.29,297.94,298.40,300.11,305.27,309.92,312.13,313.83,315.17,316.12,316.86,317.69,318.54,319.20,319.84,320.61,321.51,322.84,324.17,325.34,326.44,327.54,328.91,330.44,332.13,334.57,337.00,339.15,340.87,342.17,344.07,346.74
232.78,232.60,232.60,232.53,232.23,231.79,231.32,230.83,230.47,230.38,230.50,230.65,230.79,230.93,231.13,231.44,231.71,232.26,232.95,233.72,234.57,235.53,236.49,237.85,240.45,243.59,248.13,252.79,256.38,258.75,260.81,262.25,262.95,263.00,262.78,262.35,261.79,261.18,260.58,260.08,259.69,259.42,259.18,258.73,257.94,256.77,254.96,252.26,249.67,247.54,246.03,244.96,244.73,243.95,242.10,239.09,232.93,226.81,221.09,215.19,209.83,205.33,202.08,199.86,196.93,195.47,195.00,195.00,195.00,195.00,195.00,195.00,195.00,195.00,195.00,195.00,195.00,195.00,195.00,195.00,195.00,195.00,195.00,195.00,195.00,195.00,195.00,195.00,195.00,195.00,195.27,197.60,199.24,199.90,199.90,199.90,199.90,199.90,199.90,200.12,202.78,209.09,216.15,219.76,221.90,224.10,226.66,230.08,235.44,241.93,248.66,255.00,260.05,263.65,267.29,271.63,277.08,283.15,289.49,295.91,302.53,309.74,315.83,321.56,327.29,333.17,339.22,344.66,349.77,354.97,361.06,367.87,373.45,377.88,382.80,388.15,393.44,398.24,402.11,405.24,408.27,413.05,419.53,424.77,430.08,435.34,440.35,444.84,449.10,452.39,455.30,458.22,461.01,463.57,466.08,468.49,470.54,472.25,474.00,475.58,476.57,476.78,476.50,476.12,475.46,473.69,471.70,470.11,469.01,468.40,467.76,466.92,466.22,465.81,464.91,463.53,462.08,460.62,458.76,455.65,452.12,448.02,443.03,438.31,433.77,428.61,422.68,416.99,411.90,407.13,402.00,395.39,387.63,380.15,373.47,367.74,362.04,355.28,348.71,342.76,337.10,331.83,327.97,325.77,325.42,325.26,325.50,326.67,328.94,331.50,334.71,337.62,339.77,340.55,340.07,337.83,333.30,326.68,322.15,317.75,313.24,308.88,305.39,303.00,301.34,300.40,300.74,303.04,307.51,311.75,314.52,316.27,317.65,318.71,319.62,320.67,321.75,322.90,323.99,324.90,325.82,326.91,328.26,329.89,331.81,333.71,335.51,337.09,338.40,340.16,341.47,342.57,343.59,344.32,345.55,347.52
229.58,229.28,229.35,229.23,228.88,228.43,227.94,227.37,226.99,226.93,227.11,227.25,227.31,227.33,227.45,227.83,228.25,228.93,229.85,231.02,232.22,233.31,234.36,235.47,236.79,238.08,241.37,245.44,249.12,252.59,254.84,256.28,257.12,257.39,257.19,256.77,256.18,255.44,254.96,254.66,254.49,254.47,254.61,254.34,253.75,252.79,251.21,248.82,246.70,244.86,243.31,242.44,242.68,242.40,240.41,235.50,229.12,223.13,217.47,211.64,206.71,202.96,200.06,197.77,195.49,195.00,195.00,195.00,195.00,195.00,195.00,195.00,195.00,195.00,195.00,195.00,195.00,195.00,195.00,195.00,195.00,195.00,195.00,195.00,195.00,195.00,195.00,195.00,195.00,195.34,196.83,199.07,199.90,199.90,200.14,201.53,202.79,203.48,203.41,202.81,204.30,208.84,214.27,217.54,219.90,222.34,224.94,227.86,231.88,238.43,245.62,252.34,257.68,261.84,265.97,270.54,275.84,281.66,288.21,294.91,301.73,309.11,315.44,321.22,326.89,332.86,339.31,345.02,350.31,355.68,361.81,368.51,373.94,378.23,383.03,388.39,393.71,398.48,402.25,405.28,408.27,413.14,419.93,425.85,431.13,435.96,440.47,444.69,448.97,452.26,455.15,458.06,460.88,463.62,466.30,468.85,471.11,473.09,475.02,476.89,478.54,479.59,479.94,480.02,479.73,478.23,476.18,474.73,473.98,473.60,472.99,471.71,470.21,468.78,467.23,465.42,463.73,462.18,460.23,456.72,452.60,447.89,442.40,437.35,432.59,426.99,420.48,414.85,410.07,405.79,401.33,395.55,388.24,380.32,373.03,367.09,361.49,354.67,348.22,342.62,337.49,332.73,329.97,329.23,330.21,330.94,331.76,333.21,335.49,338.17,341.21,344.02,346.13,346.80,346.47,344.40,340.00,333.27,327.70,323.20,318.94,314.68,310.71,307.65,305.38,303.88,303.66,305.64,309.63,313.76,316.98,318.97,320.55,321.81,322.90,324.10,325.33,326.97,328.75,330.37,331.85,333.07,334.39,335.98,337.86,339.73,341.50,343.02,344.12,345.32,345.90,346.26,346.60,346.83,347.44,348.77
225.90,225.37,225.43,225.21,224.87,224.48,224.00,223.40,223.04,223.00,223.21,223.34,223.24,223.00,222.93,223.41,224.07,224.93,226.14,227.79,229.54,230.94,232.26,233.60,234.91,236.17,237.74,239.71,242.50,246.97,249.00,250.14,251.12,251.82,251.81,251.58,251.12,250.36,250.11,250.04,250.05,250.21,250.68,250.57,250.21,249.60,248.36,246.47,244.46,242.44,240.66,240.05,240.53,240.43,237.94,230.75,225.16,219.64,213.91,208.40,203.90,200.97,198.21,195.50,195.06,195.00,195.00,195.00,195.00,195.00,195.00,195.00,195.00,195.00,195.00,195.00,195.00,195.00,195.00,195.00,195.00,195.00,195.00,195.00,195.00,195.00,195.00,195.00,195.18,196.21,199.08,199.80,199.99,200.26,201.26,204.62,207.60,209.21,209.07,207.42,207.74,209.87,212.88,215.79,218.49,221.14,223.78,226.45,229.26,235.13,242.09,248.85,254.33,259.52,264.46,269.40,274.59,280.08,286.60,293.38,300.31,307.93,314.49,320.33,325.93,331.89,338.95,344.88,350.30,355.91,362.13,368.69,374.00,378.28,383.12,388.50,393.79,398.52,402.25,405.26,408.24,412.99,419.78,426.43,431.58,435.91,439.92,444.01,448.40,451.77,454.69,457.61,460.49,463.45,466.35,469.13,471.73,474.09,476.18,478.13,479.99,481.69,482.65,483.10,483.00,482.08,480.38,479.25,478.84,478.66,477.89,476.08,473.71,471.24,469.05,467.03,465.03,462.94,460.47,456.65,452.13,447.07,441.47,436.14,430.82,424.63,417.77,412.44,408.19,404.27,400.08,394.78,388.04,379.91,372.17,366.06,360.70,353.87,347.56,342.38,337.75,334.15,333.12,333.96,335.63,337.11,338.65,340.43,342.55,345.06,347.56,349.89,351.71,352.26,351.76,349.75,346.06,340.32,333.18,328.18,324.12,320.21,316.11,312.73,310.10,308.09,306.93,307.86,311.60,315.95,319.54,321.94,323.79,325.34,326.71,328.07,329.54,331.60,334.00,336.47,338.68,340.23,341.51,342.74,344.03,345.38,346.84,348.22,349.28,350.12,350.40,350.37,350.19,350.04,350.12,350.82
221.94,221.49,221.29,221.08,220.89,220.68,220.41,220.13,219.98,219.99,220.12,220.25,220.06,219.88,219.92,220.34,220.75,221.23,221.98,223.23,225.16,227.40,229.66,231.63,232.99,234.28,235.61,237.38,240.07,243.75,246.07,247.47,248.34,248.94,249.00,249.04,248.94,248.48,248.42,248.42,248.46,248.59,248.90,248.67,248.31,247.75,246.48,244.92,243.02,240.95,239.08,238.18,237.76,236.41,233.10,226.98,221.67,215.96,210.24,205.57,201.83,198.52,196.13,195.08,195.00,195.00,195.00,195.00,195.00,195.00,195.00,195.00,195.00,195.00,195.00,195.00,195.00,195.00,195.00,195.00,195.00,195.00,195.00,195.00,195.00,195.00,195.00,195.00,196.33,198.52,199.70,199.90,200.59,202.64,206.26,209.05,211.11,212.24,212.27,211.35,211.51,213.16,215.66,218.12,219.81,221.60,223.53,225.65,228.23,232.73,238.85,245.46,250.76,257.02,262.68,267.89,273.13,278.55,284.88,291.60,298.59,306.15,313.00,319.08,324.76,330.66,338.16,344.17,349.57,355.41,362.06,368.61,373.87,378.18,383.07,388.45,393.74,398.47,402.18,405.11,408.01,412.39,418.60,425.05,430.50,434.91,438.78,442.80,447.17,450.72,453.79,456.73,459.69,462.77,465.95,469.11,472.01,474.64,477.00,479.26,481.54,483.66,484.96,485.67,485.80,485.15,483.83,482.85,482.31,481.85,480.76,478.99,476.56,473.50,470.33,467.81,465.11,462.13,459.21,455.00,450.42,445.56,440.20,434.87,428.46,421.66,415.22,410.27,406.35,402.61,398.53,393.35,386.76,378.92,371.09,364.29,358.81,352.74,347.14,342.05,336.96,336.81,338.43,340.27,341.68,342.88,344.33,346.22,348.56,350.91,353.38,355.69,357.33,357.34,356.27,354.09,350.76,345.95,339.61,334.19,329.40,325.05,321.17,317.65,314.75,312.29,310.34,310.37,313.84,318.38,322.45,325.31,327.26,329.14,331.19,333.35,335.58,337.75,339.72,341.45,343.22,344.63,345.91,347.21,348.68,350.33,351.95,353.40,354.51,355.25,355.62,355.78,355.80,355.73,355.65,355.54
218.94,218.63,218.28,218.02,217.89,217.79,217.66,217.56,217.53,217.58,217.68,217.82,217.63,217.60,217.81,218.19,218.44,218.71,219.14,219.95,221.47,223.59,226.01,228.38,230.25,232.09,233.80,236.06,239.26,242.04,244.18,245.58,246.35,246.82,246.94,247.19,247.36,247.13,247.20,247.24,247.27,247.38,247.57,247.22,246.77,246.15,244.90,243.47,241.67,239.67,237.72,236.31,234.98,232.60,228.71,223.44,218.02,212.35,207.01,202.99,200.52,197.17,195.00,195.00,195.00,195.00,195.00,195.00,195.00,195.00,195.00,195.00,195.00,195.00,195.00,195.00,195.00,195.00,195.00,195.00,195.00,195.00,195.00,195.00,195.00,195.21,196.22,196.45,197.89,199.89,200.00,200.84,202.85,206.16,210.38,212.51,213.91,214.72,214.92,214.68,214.90,216.20,218.49,221.30,222.33,223.32,224.55,226.09,228.09,231.22,236.29,242.38,247.29,253.42,259.97,266.18,271.59,276.96,283.04,289.58,296.50,303.82,310.90,317.25,323.05,328.95,336.60,342.81,348.27,354.03,361.10,367.64,373.10,377.80,382.75,388.02,393.28,398.05,401.82,404.70,407.51,411.53,416.99,422.71,428.59,433.33,437.20,441.10,445.33,449.15,452.57,455.70,458.82,462.07,465.50,468.97,472.11,474.96,477.58,480.16,482.87,485.43,487.08,488.01,488.28,487.90,487.00,486.07,485.23,484.36,482.94,481.14,478.69,475.34,471.44,468.03,464.57,460.98,457.51,453.06,448.60,443.95,438.70,433.35,426.03,418.89,413.04,408.04,404.22,400.45,396.30,391.37,385.15,377.80,370.04,362.78,357.47,352.37,347.60,343.13,339.24,341.08,343.90,346.04,347.07,347.89,349.06,350.86,353.28,355.69,358.90,361.56,363.03,362.67,361.05,358.44,355.05,350.78,345.34,339.82,334.61,329.93,326.05,322.35,318.94,315.90,313.57,312.91,315.99,320.65,325.38,328.81,331.31,333.74,336.29,338.82,341.35,343.44,345.05,346.22,347.56,348.95,350.41,351.97,353.71,355.61,357.35,358.89,360.15,360.92,361.47,361.87,362.04,361.90,361.62,360.87
217.12,216.97,216.64,216.24,216.04,215.94,215.84,215.70,215.67,215.72,215.84,216.02,215.93,216.09,216.48,216.91,217.16,217.50,217.92,218.43,219.00,219.85,221.46,223.77,226.51,229.34,231.85,235.05,239.21,241.46,242.91,243.97,244.72,245.11,245.31,245.69,245.96,245.79,245.96,246.02,246.05,246.15,246.33,245.96,245.36,244.60,243.50,241.98,240.27,238.43,236.44,234.41,232.38,229.45,225.27,219.96,214.13,208.92,204.39,200.76,199.80,197.06,195.00,195.00,195.00,195.00,195.00,195.00,195.00,195.00,195.00,195.00,195.00,195.00,195.00,195.00,195.00,195.00,195.00,195.00,195.00,195.00,195.00,195.00,195.08,195.83,198.69,199.36,199.58,199.95,200.44,203.02,206.87,210.48,212.75,214.60,216.20,217.27,217.75,217.89,218.35,219.26,221.39,225.26,226.29,226.83,227.57,228.54,229.38,231.20,234.94,239.89,244.18,248.91,256.44,264.30,269.99,275.32,281.08,287.33,294.05,301.01,308.21,314.75,320.70,326.65,334.10,340.74,346.39,351.75,359.05,365.62,371.54,376.97,381.99,387.06,392.26,397.13,401.05,403.93,406.72,410.41,415.07,419.68,425.93,431.15,435.18,438.88,442.86,447.00,450.93,454.43,457.81,461.37,465.07,468.73,472.01,475.05,477.89,480.78,483.90,486.94,488.96,490.08,490.40,490.34,489.82,488.89,487.70,486.35,484.65,482.60,480.03,476.61,472.33,467.73,463.51,459.68,455.58,451.11,446.86,442.35,436.95,431.52,423.71,416.61,411.32,405.76,401.72,397.64,393.26,388.81,383.33,376.60,369.11,361.76,357.02,352.97,349.11,345.95,345.19,346.90,349.09,350.78,351.48,352.01,352.87,354.39,356.71,359.56,364.19,367.45,368.71,368.25,366.26,363.03,359.19,354.96,350.02,344.77,339.66,334.95,330.82,326.88,322.75,319.00,316.62,315.45,317.99,322.72,328.24,332.33,335.88,339.02,341.79,344.17,346.38,348.30,349.84,350.96,352.12,353.76,355.59,357.50,359.48,361.43,363.18,364.80,366.30,367.24,368.00,368.52,368.61,368.20,367.60,366.50
215.28,215.26,214.98,214.62,214.29,214.08,213.98,213.80,213.79,213.89,214.07,214.24,214.33,214.69,215.20,215.67,215.94,216.28,216.72,217.19,217.50,217.94,218.93,220.43,222.30,224.67,227.69,231.44,235.74,239.07,241.11,242.37,243.10,243.46,243.83,244.28,244.59,244.54,244.73,244.82,244.87,244.92,245.03,244.66,244.00,243.18,242.12,240.44,238.59,236.83,235.17,233.05,230.43,226.73,221.84,216.23,210.80,206.06,202.31,199.89,197.66,195.90,195.00,195.00,195.00,195.00,195.00,195.00,195.00,195.00,195.00,195.00,195.00,195.00,195.00,195.00,195.00,195.00,195.00,195.00,195.00,195.00,195.00,195.00,195.93,198.01,199.57,199.90,199.90,200.50,203.06,206.71,210.17,212.96,214.88,216.76,219.21,221.84,224.15,225.34,227.29,229.34,231.60,234.23,235.50,236.46,237.13,237.35,237.35,237.15,237.88,239.80,242.93,247.63,254.78,262.33,268.32,273.74,279.24,285.22,291.76,298.58,305.50,311.84,317.69,323.54,330.50,337.85,344.19,349.34,356.14,362.88,369.13,374.83,379.92,385.10,390.39,395.33,399.31,402.37,405.39,408.98,413.17,417.30,422.53,428.00,432.89,436.40,439.95,443.95,448.07,451.98,455.50,460.01,464.44,468.34,471.73,474.84,477.90,481.14,484.72,488.15,490.10,491.24,491.84,491.88,491.38,490.56,489.46,487.94,485.90,483.44,480.42,476.59,472.02,467.11,462.43,458.04,453.65,449.31,445.18,440.63,434.98,429.27,422.10,415.56,410.24,404.34,398.89,393.94,389.46,385.43,381.03,375.14,368.24,361.38,357.13,353.89,351.32,349.80,350.30,351.62,353.28,354.63,355.09,355.47,356.19,357.68,360.46,364.92,369.65,372.57,373.57,373.05,371.23,368.15,364.18,359.39,354.22,349.19,344.20,339.53,335.94,332.07,327.79,323.58,320.19,318.17,320.16,324.81,330.69,335.14,339.10,342.62,345.75,348.49,351.02,352.97,354.54,355.90,357.34,359.10,361.10,363.28,365.54,367.61,369.47,371.21,372.86,374.17,375.08,375.27,374.77,374.58,373.96,372.69
213.41,213.48,213.31,213.06,212.66,212.29,212.13,211.94,211.95,212.11,212.34,212.55,212.85,213.36,213.94,214.43,214.73,215.08,215.53,215.99,216.22,216.47,217.04,217.88,218.90,220.53,223.30,226.73,230.53,234.71,237.66,239.72,241.09,241.82,242.39,242.89,243.22,243.28,243.50,243.63,243.68,243.70,243.70,243.35,242.70,241.74,240.27,238.15,236.50,235.13,233.61,231.63,228.31,223.84,218.42,212.58,207.72,203.63,200.52,198.61,195.81,195.00,195.00,195.00,195.00,195.00,195.00,195.00,195.00,195.00,195.00,195.00,195.00,195.00,195.00,195.00,195.00,195.00,195.00,195.00,195.00,195.11,195.86,196.10,197.34,199.72,199.90,199.90,200.42,202.16,206.30,210.27,213.09,215.17,217.20,220.26,224.02,228.25,232.29,234.73,237.85,240.61,242.65,243.81,244.97,246.10,246.71,246.49,245.92,244.45,242.95,242.18,243.53,247.54,253.79,260.64,266.79,272.34,277.65,283.34,289.61,296.16,302.72,308.79,314.48,320.23,326.83,334.64,341.60,346.89,353.06,359.87,366.33,372.11,377.23,382.33,387.92,393.17,397.11,400.28,403.44,407.04,411.09,415.05,419.27,424.58,430.01,433.80,437.13,440.83,444.88,449.05,452.82,458.12,463.38,467.90,471.38,474.55,477.79,481.34,485.29,489.10,491.19,492.42,493.14,493.28,492.89,492.21,491.19,489.45,486.92,483.95,480.47,476.28,471.38,466.21,461.18,456.41,451.88,447.63,443.44,438.64,432.65,426.95,420.58,414.47,408.86,402.86,396.35,390.76,386.25,382.47,378.88,373.88,367.82,361.66,357.78,355.29,354.09,354.18,355.36,356.49,357.75,358.76,359.09,359.45,360.16,361.83,365.11,370.46,374.97,377.62,378.52,377.92,376.17,373.23,369.23,364.16,358.58,353.46,348.48,343.92,340.74,337.17,333.02,328.55,324.27,321.36,322.61,326.77,332.47,337.00,341.28,345.19,348.82,352.28,355.25,357.41,359.12,360.71,362.58,364.56,366.73,369.10,371.53,373.72,375.75,377.62,379.32,380.80,381.81,381.93,381.25,381.19,380.56,379.15
211.49,211.62,211.64,211.54,211.15,210.67,210.32,210.20,210.24,210.40,210.66,211.02,211.54,212.14,212.70,213.16,213.54,213.93,214.35,214.76,214.94,215.06,215.50,216.28,217.21,218.22,219.47,221.15,223.65,227.51,231.38,235.06,238.24,240.08,240.88,241.41,241.81,241.98,242.27,242.41,242.48,242.51,242.38,242.03,241.45,240.22,237.50,234.48,233.80,233.39,231.51,229.87,225.60,220.43,215.01,209.18,204.89,201.83,199.06,196.04,195.15,195.00,195.00,195.00,195.00,195.00,195.00,195.00,195.00,195.00,195.00,195.00,195.00,195.00,195.00,195.00,195.00,195.00,195.00,195.00,195.02,195.47,198.27,199.18,199.41,199.87,199.93,199.97,201.94,205.69,209.73,212.96,215.63,217.77,220.10,226.26,231.84,237.12,242.07,245.81,248.95,250.94,251.98,252.31,252.61,253.10,253.50,253.44,252.71,251.69,250.09,248.11,246.78,248.32,253.24,259.55,265.55,271.27,276.48,281.85,287.63,293.57,299.80,305.66,311.18,316.84,323.50,331.17,338.41,344.41,350.01,356.68,363.10,368.81,373.92,378.46,384.62,390.63,394.39,397.52,400.57,404.26,408.64,412.76,416.59,421.07,426.13,431.07,434.61,437.94,441.61,445.74,449.98,455.47,461.63,467.40,470.98,474.21,477.63,481.37,485.48,489.69,492.53,494.05,494.51,494.84,494.88,494.39,493.20,490.97,487.69,484.13,480.33,476.00,470.64,464.90,459.62,454.93,450.39,446.10,441.55,436.18,429.75,424.65,418.86,412.72,406.62,400.91,394.49,388.94,384.46,380.67,377.25,373.15,368.24,362.92,359.23,357.49,357.60,359.05,360.64,362.14,363.17,363.81,364.21,364.70,365.60,367.66,371.28,375.71,380.01,382.87,384.02,383.25,381.23,378.00,374.05,369.42,363.45,357.69,352.50,348.10,344.81,341.80,338.00,333.56,329.04,325.37,325.47,328.43,333.18,337.41,342.08,346.58,350.95,355.53,358.88,361.49,363.52,365.19,367.59,370.00,372.42,374.87,377.27,379.58,381.80,383.83,385.41,386.63,387.71,388.40,388.52,388.22,387.43,385.89
209.93,210.12,210.25,210.24,209.99,209.65,209.36,209.26,209.30,209.44,209.67,210.02,210.46,210.97,211.48,211.93,212.33,212.75,213.15,213.48,213.61,213.73,214.06,214.67,215.59,216.45,217.24,218.26,219.85,222.21,224.68,227.80,231.35,234.06,236.13,237.90,239.41,240.46,241.00,241.22,241.30,241.29,241.08,240.48,239.51,237.55,233.67,231.44,231.64,231.92,230.28,227.20,222.43,217.20,211.82,206.11,202.53,200.66,198.72,195.44,195.00,195.00,195.00,195.00,195.00,195.00,195.00,195.00,195.00,195.00,195.00,195.00,195.00,195.00,195.00,195.00,195.00,195.00,195.00,195.00,195.59,197.51,199.37,199.90,199.90,200.08,201.00,202.57,205.42,209.16,212.59,215.52,219.22,223.16,227.15,233.20,238.88,244.13,248.79,252.32,255.10,256.61,257.15,257.26,257.34,257.77,258.39,258.81,258.24,257.37,255.71,253.36,251.15,250.71,253.68,258.63,264.26,270.45,275.53,280.58,285.96,291.18,296.99,302.73,308.17,313.38,319.53,327.09,334.59,341.05,346.79,352.87,358.65,364.12,369.71,374.55,379.84,385.43,390.63,394.42,397.58,400.99,404.95,409.13,413.02,417.13,421.67,426.71,431.42,435.05,438.40,442.12,446.34,451.88,458.65,465.60,470.40,474.01,477.49,481.41,486.01,490.38,493.72,495.87,496.86,497.39,497.50,496.92,495.47,492.69,489.02,484.93,480.55,475.75,470.09,463.71,458.08,453.37,448.69,444.33,438.42,431.98,426.48,421.12,414.91,408.81,403.36,398.49,392.90,387.87,383.61,380.06,376.93,373.55,369.73,365.57,361.97,360.92,361.80,363.81,365.70,367.44,368.71,369.53,369.99,370.58,371.57,373.68,377.26,381.71,385.95,388.76,389.88,389.02,386.76,383.34,379.29,374.69,369.05,362.66,356.78,352.03,348.67,345.72,342.16,338.01,333.53,328.76,327.37,329.21,333.54,337.62,342.41,347.68,353.24,358.70,362.17,364.98,367.49,369.81,372.44,375.02,377.73,380.53,383.11,385.48,387.82,390.04,391.88,393.40,394.85,395.94,396.38,396.04,394.83,392.74
208.58,208.81,209.02,209.07,208.99,208.83,208.63,208.54,208.59,208.72,208.91,209.22,209.53,209.91,210.34,210.76,211.14,211.56,211.94,212.19,212.29,212.42,212.64,213.08,213.96,214.77,215.47,216.27,217.26,218.20,219.06,220.99,223.99,226.97,229.97,232.90,235.56,237.56,238.60,239.13,239.39,239.41,239.11,238.37,237.05,234.56,230.20,228.89,229.62,230.17,228.57,224.09,219.13,213.99,208.66,203.35,200.71,199.55,198.13,195.37,195.00,195.00,195.00,195.00,195.00,195.00,195.00,195.00,195.00,195.00,195.00,195.00,195.00,195.00,195.00,195.00,195.00,195.00,195.00,195.35,196.74,199.50,199.89,199.94,200.20,200.99,202.93,205.93,209.23,212.45,215.36,218.66,223.61,229.32,234.84,240.15,245.34,250.10,254.12,257.03,259.43,260.72,261.23,261.50,261.83,262.45,263.23,263.81,263.36,262.52,260.87,258.55,256.26,254.54,255.57,258.82,263.78,270.04,274.87,279.52,284.43,288.99,294.35,299.93,305.25,310.02,315.58,322.78,330.39,337.36,343.19,348.73,353.98,359.20,364.92,370.08,374.56,379.59,385.93,390.57,394.19,397.47,400.89,405.04,409.11,413.07,417.16,421.88,427.41,431.74,435.26,438.55,442.46,447.80,455.03,463.19,469.58,473.73,477.29,481.35,486.45,490.96,494.78,497.62,499.28,499.99,500.02,499.40,497.85,494.70,490.66,486.01,480.95,475.48,469.55,462.63,456.65,451.81,446.84,442.19,435.12,427.90,423.22,417.63,411.28,405.49,400.88,396.94,392.26,387.78,383.83,380.51,377.52,374.60,371.66,368.58,365.23,364.81,366.24,368.53,370.62,372.55,374.11,375.20,375.78,376.49,377.59,379.74,383.37,388.09,392.16,394.66,395.50,394.59,392.19,388.66,384.47,379.73,374.38,367.73,361.26,355.92,352.41,349.31,345.93,342.15,337.82,332.24,329.23,329.87,333.90,337.86,342.74,348.74,355.38,361.50,365.25,368.34,371.40,374.53,377.44,380.20,383.20,386.39,389.24,391.65,394.04,396.38,398.48,400.35,402.14,403.42,403.80,403.28,401.60,399.03
207.48,207.73,208.00,208.09,208.13,208.08,207.92,207.78,207.86,208.03,208.27,208.58,208.88,209.18,209.46,209.74,210.06,210.40,210.70,210.91,211.00,211.09,211.23,211.56,212.29,212.86,213.61,214.53,215.51,216.39,217.19,217.98,218.96,220.57,222.56,225.24,228.13,230.63,232.72,234.29,235.28,235.56,235.04,234.75,233.69,231.63,228.88,227.26,227.50,227.28,224.62,220.45,215.86,210.74,205.40,201.26,200.09,198.07,195.76,195.09,195.00,195.00,195.00,195.00,195.00,195.00,195.00,195.00,195.00,195.00,195.00,195.00,195.00,195.00,195.00,195.00,195.00,195.00,195.00,196.80,199.14,199.81,199.90,200.12,201.41,204.03,206.58,209.31,212.23,215.22,218.37,223.71,229.55,235.22,240.60,246.22,250.76,254.67,258.04,260.52,262.71,264.46,265.82,266.93,268.26,269.32,269.67,269.12,268.36,267.52,266.07,264.20,262.65,261.29,260.98,262.30,265.86,270.70,274.88,278.90,283.03,287.17,292.17,297.36,302.36,307.07,312.24,318.33,325.62,333.45,338.58,344.15,349.75,354.89,359.18,363.93,369.09,374.30,379.33,384.74,389.65,393.62,396.87,400.84,404.96,409.04,413.08,417.16,421.42,427.19,432.28,435.39,438.62,443.14,450.57,460.07,468.17,473.09,476.84,480.95,486.24,491.17,495.55,498.96,501.07,501.84,501.68,501.34,500.37,497.40,492.75,487.47,481.60,475.14,468.84,461.78,455.57,450.34,444.79,439.13,432.45,425.75,420.31,415.45,410.69,406.02,401.77,398.57,394.25,390.07,386.42,383.17,379.69,376.66,373.95,371.40,368.89,369.02,370.75,373.17,375.32,377.43,378.98,380.08,380.97,381.85,383.21,385.81,390.00,394.93,398.39,399.96,400.07,399.17,396.86,393.36,389.07,384.04,378.26,372.44,366.08,359.85,355.98,352.53,349.26,345.83,341.76,336.56,331.89,330.96,334.59,338.37,343.56,349.95,356.91,363.28,368.02,371.85,375.51,379.34,382.99,386.22,389.52,392.96,396.17,398.66,400.92,403.10,405.16,406.94,408.74,409.74,409.35,407.97,405.95,403.50
206.43,206.68,206.97,207.11,207.19,207.22,207.15,207.05,207.17,207.39,207.65,207.90,208.13,208.37,208.61,208.85,209.15,209.43,209.68,209.84,209.93,210.01,210.09,210.29,210.75,211.11,211.82,212.77,213.77,214.59,215.19,215.49,215.68,216.45,217.88,219.92,222.18,224.26,226.50,228.45,230.13,231.25,231.07,231.01,230.48,229.25,227.33,225.71,225.31,224.35,221.24,217.11,212.31,207.15,202.47,200.17,198.40,196.46,195.00,195.00,195.00,195.00,195.00,195.00,195.00,195.00,195.00,195.00,195.00,195.00,195.00,195.00,195.00,195.00,195.00,195.00,195.00,195.12,196.48,198.42,199.90,199.99,200.58,201.78,203.86,206.81,209.51,212.17,214.99,218.28,222.79,228.98,234.84,240.21,245.43,250.96,255.16,258.52,261.29,263.52,265.63,267.98,270.53,273.09,275.17,276.32,276.37,275.40,274.70,273.99,272.98,271.78,270.85,269.97,269.13,269.06,270.65,273.31,276.37,279.66,283.05,286.31,290.58,295.06,299.52,304.12,309.31,314.91,321.46,328.81,334.42,339.25,343.99,348.92,354.11,358.47,363.02,367.98,373.40,379.36,384.75,389.19,392.85,396.79,400.83,405.01,409.14,412.94,416.76,421.99,427.60,432.52,436.12,440.69,447.66,456.82,466.34,471.99,476.12,480.41,485.75,491.11,496.00,499.85,502.33,503.69,503.94,503.69,502.57,499.37,494.57,488.65,482.00,474.99,468.53,461.34,454.99,449.51,443.48,438.18,433.33,428.76,424.40,419.90,415.87,411.22,406.03,402.33,398.59,394.74,390.72,386.45,382.60,379.11,376.15,373.94,372.29,373.27,375.41,377.84,380.00,382.05,383.69,384.96,385.99,387.20,389.04,391.91,395.95,400.38,402.79,403.58,403.28,402.16,400.17,397.05,392.81,387.42,381.52,375.67,369.50,363.40,358.88,355.19,352.06,349.00,345.36,340.64,335.64,333.44,335.34,338.86,344.24,350.77,357.78,364.49,370.44,375.42,380.14,384.98,389.03,392.67,396.22,399.74,403.03,405.50,407.98,410.58,413.03,414.69,415.79,416.18,415.51,413.57,410.89,408.22
205.40,205.66,205.94,206.12,206.22,206.30,206.35,206.31,206.47,206.73,207.00,207.16,207.32,207.53,207.77,208.01,208.30,208.56,208.76,208.91,208.99,209.07,209.11,209.18,209.42,209.61,210.22,211.09,212.03,212.75,213.09,213.21,213.25,213.51,214.54,215.87,217.23,218.60,220.59,222.62,224.81,226.81,227.18,227.26,227.35,227.06,225.60,224.17,223.15,221.46,218.11,213.78,208.56,203.63,200.09,199.17,196.44,195.10,195.00,195.00,195.00,195.00,195.00,195.00,195.00,195.00,195.00,195.00,195.00,195.00,195.00,195.00,195.00,195.00,195.00,195.00,195.00,195.26,198.25,199.80,199.99,200.47,201.95,204.25,206.82,209.41,212.03,214.70,217.74,221.74,227.82,234.22,239.77,244.80,249.83,255.00,258.93,261.91,264.25,266.44,268.80,271.81,275.42,279.24,281.83,283.05,283.12,282.35,281.99,281.54,281.05,280.53,279.97,279.43,278.40,277.38,277.03,277.57,279.40,281.84,284.42,286.60,289.91,293.43,297.13,301.49,306.72,312.06,317.77,324.07,330.44,334.55,338.23,342.74,349.03,353.37,357.11,361.60,367.76,374.17,379.77,384.65,388.91,392.85,396.79,401.05,405.36,409.20,413.05,417.12,422.67,429.73,434.38,439.53,445.89,454.04,464.43,470.69,475.25,479.74,485.07,490.82,496.17,500.39,503.26,505.42,506.42,506.18,504.52,500.90,496.17,489.87,482.60,475.04,468.50,461.19,454.83,449.38,443.38,439.12,436.42,434.26,431.53,427.35,423.55,418.50,412.04,407.17,403.71,400.06,395.60,390.26,385.99,381.87,378.42,376.34,375.61,377.53,380.11,382.53,384.80,386.88,388.72,390.24,391.42,392.94,395.21,398.14,401.61,405.09,406.37,406.45,405.80,404.38,402.68,400.00,395.94,390.27,384.36,378.11,372.12,366.59,361.49,357.61,354.60,351.83,348.63,344.44,339.71,336.43,336.14,339.39,344.85,351.38,358.36,365.35,372.45,378.79,384.82,390.68,395.01,399.02,402.86,406.47,409.75,412.38,415.39,418.62,421.26,422.61,422.80,422.54,421.80,419.53,416.18,413.16
204.36,204.68,204.93,205.09,205.19,205.30,205.42,205.51,205.67,205.89,206.12,206.28,206.43,206.66,206.93,207.17,207.42,207.66,207.88,208.06,208.15,208.22,208.26,208.32,208.55,208.81,209.29,209.84,210.34,210.73,210.86,210.89,210.91,211.05,211.56,212.43,213.47,214.61,216.48,218.56,220.72,222.63,223.37,223.69,224.23,224.59,223.64,222.54,221.16,218.78,214.76,209.95,204.52,201.00,199.33,196.75,195.41,195.00,195.00,195.00,195.00,195.00,195.00,195.00,195.00,195.00,195.00,195.00,195.00,195.00,195.00,195.00,195.00,195.00,195.00,195.00,195.00,195.27,198.39,199.90,200.44,202.33,204.80,207.21,209.50,211.76,214.31,216.94,220.83,226.18,232.66,239.05,244.54,249.48,254.23,258.73,262.01,264.72,267.22,269.85,273.57,277.32,280.81,283.98,286.58,288.45,289.60,290.12,290.58,290.62,290.55,290.31,289.44,288.42,287.13,285.75,284.71,284.78,285.87,287.21,288.49,289.73,291.79,293.93,296.43,300.19,304.63,309.62,314.82,320.26,326.34,331.33,335.36,338.87,342.69,348.42,352.95,356.93,361.99,368.87,375.20,380.69,385.30,389.13,393.04,397.38,401.97,406.38,410.58,414.77,420.00,426.74,433.18,439.38,445.82,453.33,463.02,469.47,474.26,478.84,484.17,490.15,495.76,500.40,503.88,506.64,508.61,508.41,506.09,502.04,497.37,491.75,484.39,475.47,468.80,461.48,455.39,450.81,446.60,443.69,441.73,440.03,437.85,434.47,430.56,425.39,418.83,412.45,407.69,403.73,399.79,395.06,389.92,385.13,381.14,378.73,379.11,381.80,384.68,387.23,390.07,392.97,395.28,397.12,398.76,400.24,402.31,404.76,407.34,409.49,410.05,409.39,408.06,406.52,404.40,401.84,398.15,392.73,386.59,380.07,374.16,369.02,364.17,360.14,357.04,354.33,351.31,347.57,342.98,338.89,337.06,340.10,345.44,351.93,358.88,365.79,373.43,381.31,388.78,395.11,399.83,404.17,408.50,412.67,416.10,419.69,423.92,427.53,428.72,429.05,428.82,428.29,427.32,425.21,421.67,418.42
203.32,203.70,203.90,204.06,204.19,204.33,204.53,204.69,204.85,205.03,205.21,205.38,205.55,205.80,206.07,206.33,206.56,206.79,207.01,207.20,207.31,207.39,207.44,207.52,207.77,208.11,208.51,208.87,209.13,209.31,209.35,209.36,209.40,209.46,209.68,210.19,210.86,211.63,212.91,214.63,216.57,218.41,219.37,220.09,221.01,221.81,221.58,220.49,218.54,215.42,210.77,205.67,201.72,199.90,199.06,195.66,195.00,195.00,195.00,195.00,195.00,195.00,195.00,195.00,195.00,195.00,195.00,195.00,195.00,195.00,195.00,195.00,195.00,195.00,195.00,195.00,195.30,196.72,198.94,199.90,200.97,204.44,207.56,209.86,211.77,213.71,216.19,219.40,224.29,230.60,237.28,243.41,248.97,253.98,258.35,262.15,265.04,267.94,271.17,274.52,278.61,282.40,285.63,288.33,290.88,293.09,294.94,296.41,297.75,298.31,298.55,298.47,297.68,296.52,295.29,294.04,292.93,292.58,292.75,293.11,293.51,294.05,295.18,296.34,297.94,300.99,304.94,309.55,314.25,318.90,324.08,329.24,333.40,336.47,339.21,344.26,348.65,352.43,356.75,363.43,370.15,376.31,381.58,385.71,389.67,394.06,398.69,403.13,407.80,412.57,417.80,423.99,431.29,438.47,445.49,452.89,461.47,467.68,472.69,477.51,482.89,489.00,494.82,499.82,503.80,507.18,510.03,510.21,507.76,503.34,498.63,493.00,485.55,476.49,470.12,463.46,457.92,453.91,450.87,448.68,446.93,445.20,443.06,440.07,436.31,431.44,425.15,417.74,411.53,406.84,403.04,398.98,393.91,388.70,384.15,381.53,382.91,386.12,389.44,392.56,396.02,399.34,401.93,404.17,406.48,408.26,410.24,412.12,413.62,414.53,414.27,412.94,410.93,408.74,406.24,403.38,399.65,394.53,388.57,382.13,376.39,371.57,367.13,363.32,359.95,356.86,353.90,350.58,346.00,341.48,338.88,341.14,346.01,352.53,359.68,366.36,374.21,382.91,391.01,397.27,402.39,407.08,412.00,417.06,421.49,426.40,431.25,434.66,434.94,434.58,434.04,433.36,432.37,430.63,427.30,424.27
202.30,202.72,202.88,203.05,203.21,203.43,203.70,203.87,204.01,204.16,204.32,204.49,204.70,204.94,205.19,205.48,205.72,205.95,206.15,206.31,206.46,206.55,206.63,206.74,207.01,207.43,207.78,208.06,208.27,208.37,208.39,208.43,208.48,208.51,208.65,208.89,209.17,209.49,209.97,211.05,212.59,214.29,215.29,216.49,217.68,218.73,219.17,217.81,215.24,211.45,206.39,201.58,200.12,199.74,198.72,195.60,195.00,195.00,195.00,195.00,195.00,195.00,195.00,195.00,195.00,195.00,195.00,195.00,195.00,195.00,195.00,195.00,195.00,195.00,195.00,195.00,195.77,198.92,199.78,200.03,201.73,206.55,210.00,212.12,213.72,215.42,217.88,222.16,228.02,234.80,241.49,247.26,252.96,258.13,262.09,265.32,268.22,271.66,275.81,279.92,283.58,286.92,289.91,292.44,294.99,297.40,299.62,301.69,303.68,304.70,305.09,305.06,304.64,303.69,302.76,301.90,301.11,300.38,299.72,299.34,299.30,299.38,299.87,300.45,301.45,303.77,307.48,311.73,316.00,320.06,324.03,328.63,332.59,335.71,338.63,341.60,345.07,348.73,352.63,358.54,365.16,371.71,377.68,382.46,386.60,390.99,395.49,399.62,404.73,410.28,415.83,421.57,428.93,436.87,444.71,452.33,459.67,465.47,470.68,475.85,481.37,487.48,493.46,498.78,503.26,507.28,510.85,511.63,509.48,504.84,499.96,493.78,486.25,478.11,472.43,466.98,462.28,458.62,456.01,453.78,451.80,449.78,447.35,444.35,440.86,436.53,430.73,422.78,415.25,409.59,405.51,402.01,397.69,392.31,387.29,384.62,386.82,390.38,394.29,398.31,402.43,405.88,408.63,411.24,414.13,416.33,418.18,419.42,419.86,419.70,418.65,416.81,414.27,411.12,408.23,404.79,400.69,395.85,390.38,384.32,378.88,374.36,370.38,367.06,363.36,359.66,356.65,353.56,348.83,344.18,341.39,342.51,346.66,353.21,360.66,366.99,374.70,383.52,391.57,397.47,402.89,408.00,413.53,419.61,425.82,432.21,437.25,440.18,440.25,439.62,438.84,438.06,437.17,435.89,433.06,430.56
201.30,201.70,201.86,202.11,202.36,202.66,202.97,203.10,203.16,203.27,203.43,203.64,203.87,204.10,204.34,204.59,204.82,205.06,205.28,205.47,205.63,205.72,205.79,205.94,206.28,206.68,206.96,207.18,207.37,207.41,207.46,207.50,207.55,207.65,207.79,207.96,208.18,208.47,208.85,209.43,210.22,211.10,211.76,213.05,214.35,215.24,215.13,213.34,210.80,207.15,202.55,200.35,199.90,198.69,196.48,195.23,195.00,195.00,195.00,195.00,195.00,195.00,195.00,195.00,195.00,195.00,195.00,195.00,195.00,195.00,195.00,195.00,195.00,195.00,195.00,195.00,195.83,199.22,199.90,200.93,203.60,208.22,211.38,213.67,215.54,217.31,219.88,225.55,231.96,238.18,244.15,249.97,255.93,261.16,264.90,268.35,272.24,276.27,280.26,284.11,287.57,290.77,293.70,296.38,299.40,302.53,305.42,307.75,309.23,309.97,310.24,310.18,309.84,309.17,308.46,307.79,307.20,306.78,306.47,306.28,306.24,306.25,306.45,306.69,307.38,309.38,312.55,316.58,321.00,325.30,328.61,332.07,335.49,338.77,341.82,344.17,346.67,349.41,352.57,357.31,362.58,367.94,373.37,378.99,383.55,388.03,392.54,396.90,401.85,407.68,413.78,419.97,427.08,435.04,443.02,450.60,457.45,463.24,468.60,474.08,480.00,485.81,491.69,497.49,502.99,507.69,511.50,512.61,510.89,506.60,501.39,494.76,487.50,480.66,476.04,472.21,468.93,465.96,462.80,458.89,456.02,453.68,450.86,447.52,443.89,439.71,434.32,426.64,418.52,411.97,407.25,403.93,400.32,395.05,390.01,387.66,390.20,394.13,398.77,403.84,408.71,412.58,415.68,418.24,420.37,422.15,422.92,423.31,423.49,422.87,421.71,420.00,417.60,414.13,410.32,406.28,401.88,397.03,392.12,386.68,381.76,377.69,374.18,371.23,367.71,363.89,360.36,356.61,351.47,346.77,344.04,344.40,347.78,354.07,361.50,367.23,374.06,382.06,389.71,395.80,401.05,406.76,412.73,419.39,428.09,435.71,441.20,444.50,445.46,445.25,444.40,443.39,442.40,441.24,439.13,437.01
200.49,200.79,200.96,201.25,201.54,201.89,202.28,202.34,202.31,202.37,202.54,202.77,203.02,203.26,203.49,203.72,203.95,204.19,204.42,204.63,204.79,204.88,204.99,205.18,205.56,205.88,206.09,206.27,206.44,206.48,206.53,206.58,206.65,206.80,206.94,207.10,207.31,207.63,208.01,208.34,208.68,209.02,209.32,210.37,211.44,212.02,211.38,209.20,206.80,203.79,200.37,199.91,199.03,197.15,195.07,195.00,195.00,195.00,195.00,195.00,195.00,195.00,195.00,195.00,195.00,195.00,195.00,195.00,195.00,195.00,195.00,195.00,195.00,195.01,195.87,196.44,197.05,199.55,200.32,201.87,204.81,209.03,212.98,215.61,217.53,219.44,222.54,228.75,235.05,240.66,246.28,252.21,258.26,263.59,267.56,271.50,275.94,280.17,283.96,287.61,290.96,294.11,297.21,300.43,303.94,307.31,310.29,312.54,313.66,314.18,314.37,314.33,314.03,313.57,313.01,312.45,312.04,311.90,311.87,311.87,311.89,312.00,312.33,312.87,314.14,317.07,320.27,323.90,327.88,331.81,334.53,337.07,339.97,343.18,346.30,348.59,350.64,352.65,354.91,358.38,362.19,366.01,370.20,375.80,380.89,385.57,390.06,394.64,399.50,405.40,411.90,418.65,425.49,433.13,440.83,448.21,454.95,460.95,466.63,472.42,478.55,484.28,490.05,495.98,502.01,507.71,511.91,513.59,512.55,508.40,502.92,496.31,489.73,484.22,480.34,477.35,474.76,472.17,468.93,464.62,460.81,457.47,454.07,450.19,446.32,442.26,437.26,429.64,421.38,414.45,409.27,405.83,402.53,397.66,393.04,391.03,393.51,398.13,403.83,409.83,414.84,418.69,421.80,424.33,426.17,427.54,427.46,426.97,426.50,425.57,424.34,422.67,420.32,416.77,412.18,407.62,403.05,398.33,393.86,389.23,385.06,381.57,378.62,375.84,372.44,368.60,364.64,360.33,354.77,349.66,346.42,346.16,349.32,355.33,362.42,367.88,373.71,380.46,387.45,393.87,399.15,405.35,411.62,418.62,428.86,437.52,443.62,447.55,449.58,450.15,449.81,449.02,447.98,446.82,445.25,443.57
199.81,200.06,200.23,200.50,200.76,201.12,201.57,201.56,201.46,201.47,201.65,201.88,202.16,202.42,202.65,202.89,203.12,203.35,203.58,203.80,203.95,204.05,204.20,204.47,204.82,205.03,205.19,205.35,205.50,205.57,205.59,205.67,205.81,205.96,206.06,206.23,206.47,206.80,207.18,207.50,207.81,208.05,208.07,208.57,209.11,209.30,208.45,206.01,203.73,201.72,200.06,199.65,197.17,195.34,195.01,195.00,195.00,195.00,195.00,195.00,195.00,195.00,195.00,195.00,195.00,195.00,195.00,195.00,195.00,195.00,195.00,195.00,195.03,195.24,197.71,199.38,199.57,200.30,201.29,202.78,205.08,208.99,215.09,218.19,219.85,221.88,225.88,231.52,237.01,242.20,248.04,254.06,260.03,265.51,270.14,274.64,278.93,282.94,286.69,290.43,293.74,296.95,300.44,304.57,308.46,311.43,313.81,315.73,317.02,317.63,317.92,318.00,317.77,317.40,316.87,316.35,316.01,315.90,315.88,315.88,315.96,316.36,317.34,318.87,321.66,326.62,330.40,333.36,336.14,338.90,341.05,343.13,345.63,348.57,351.67,354.25,356.41,358.10,359.38,361.59,364.09,366.32,368.74,373.22,378.77,383.73,388.15,392.83,397.82,403.63,410.25,417.44,424.11,431.15,438.23,445.23,452.16,458.56,464.74,470.88,476.98,482.91,488.65,494.27,500.16,507.08,511.93,514.63,514.62,510.42,504.81,498.67,493.11,488.79,485.23,482.09,479.23,476.56,473.90,470.84,466.31,461.35,457.14,452.55,448.35,444.36,439.63,431.83,423.92,417.24,411.96,408.06,404.59,400.35,396.52,394.84,396.97,402.73,409.70,416.29,420.72,424.07,426.94,429.59,431.87,432.97,432.40,431.03,429.42,428.16,426.73,424.83,422.33,418.84,413.80,408.84,404.22,399.87,395.66,392.01,388.78,385.98,383.71,380.90,377.47,373.62,369.44,364.88,358.96,353.02,348.56,347.70,351.22,357.03,363.54,369.14,373.94,379.20,385.31,392.09,397.78,404.25,410.70,417.81,428.21,437.67,444.51,449.21,452.28,453.94,454.75,454.73,453.84,452.57,451.27,450.10
198.23,199.80,199.88,200.04,200.19,200.38,200.59,200.58,200.59,200.66,200.79,201.03,201.29,201.53,201.78,202.05,202.28,202.52,202.73,202.92,203.11,203.21,203.43,203.73,203.97,204.13,204.29,204.44,204.58,204.62,204.70,204.82,204.97,205.08,205.20,205.36,205.60,205.96,206.34,206.67,206.90,206.99,206.94,207.15,207.43,207.56,207.02,205.02,202.68,200.81,199.63,197.54,195.81,195.00,195.00,195.00,195.00,195.00,195.00,195.00,195.00,195.00,195.00,195.00,195.00,195.00,195.00,195.00,195.00,195.00,195.00,195.00,195.35,197.35,199.08,200.14,200.69,201.48,202.75,204.11,206.04,209.94,217.54,221.41,223.28,225.17,228.85,233.23,237.98,243.26,249.61,255.50,261.51,267.19,271.91,276.12,280.21,284.26,288.26,292.11,295.62,299.30,303.38,307.93,311.61,314.42,316.91,319.41,322.00,323.83,324.93,325.42,325.39,325.14,324.31,323.27,322.39,321.63,321.44,321.44,321.73,323.11,325.08,327.78,331.27,335.36,337.96,340.04,342.12,344.33,346.33,348.65,351.43,354.53,357.58,360.11,362.12,363.59,364.56,365.95,367.44,368.75,370.17,372.90,377.64,382.34,386.78,391.59,396.96,402.52,408.59,415.46,422.69,429.20,435.54,442.07,449.09,455.74,462.45,469.06,475.26,481.28,487.12,492.67,498.26,504.83,510.74,515.28,517.30,514.57,508.94,502.74,497.35,493.45,490.25,487.13,484.07,481.09,478.09,475.09,471.08,466.20,460.78,455.39,450.55,445.76,440.42,433.65,427.28,421.56,416.50,412.09,407.72,403.50,400.14,398.95,401.80,409.18,416.31,421.59,425.65,429.51,433.50,437.05,439.18,439.64,438.01,435.72,433.44,431.21,429.16,426.85,424.12,420.69,415.94,410.78,405.96,401.84,397.86,394.79,392.36,390.36,388.59,386.06,382.72,378.90,374.77,369.89,363.84,357.40,351.81,349.73,352.86,358.68,365.27,370.69,374.77,379.17,384.66,391.41,397.74,404.38,410.98,418.01,427.21,436.76,444.38,449.95,453.65,456.34,458.19,459.11,458.85,457.58,456.31,455.15
196.60,198.66,198.66,198.71,198.77,198.81,198.94,199.67,199.95,200.05,200.15,200.33,200.52,200.71,200.92,201.19,201.43,201.66,201.86,202.04,202.27,202.39,202.63,202.93,203.09,203.24,203.40,203.56,203.66,203.71,203.82,203.96,204.11,204.20,204.35,204.51,204.73,205.12,205.49,205.79,205.94,205.91,205.86,205.87,205.91,205.94,205.70,204.37,202.15,200.05,198.44,195.69,195.00,195.00,195.00,195.00,195.00,195.00,195.00,195.00,195.00,195.00,195.00,195.00,195.00,195.00,195.00,195.00,195.00,195.00,195.56,196.09,196.60,199.44,200.47,201.13,202.15,203.32,204.88,207.14,210.19,214.59,221.75,225.41,227.15,228.75,231.66,234.91,239.29,244.87,251.15,256.79,262.83,268.58,273.16,276.94,280.91,285.13,289.43,293.35,297.06,301.21,305.83,310.53,314.05,317.26,320.51,323.92,327.39,330.01,331.64,332.43,332.62,332.49,331.60,330.38,329.29,328.37,328.22,328.39,329.01,330.98,333.44,336.66,340.08,342.69,344.13,345.76,347.68,349.77,351.88,354.40,357.28,360.35,363.23,365.55,367.38,368.79,369.81,370.79,371.63,372.40,373.21,374.41,377.66,381.52,385.68,390.52,396.20,401.60,407.09,413.38,421.16,427.40,433.22,439.35,446.20,453.08,460.24,467.27,473.64,479.63,485.54,491.13,496.50,502.42,509.29,515.45,519.37,518.60,513.48,507.45,502.07,498.08,495.28,492.36,489.21,485.88,482.41,479.07,475.44,470.75,464.39,458.20,452.84,447.43,441.65,435.96,431.10,426.35,421.52,416.67,411.33,406.83,403.77,403.34,407.57,415.58,422.16,426.39,430.85,435.40,440.10,444.01,445.75,445.75,443.60,440.64,437.53,434.37,431.64,428.89,425.92,422.56,418.40,413.36,408.45,404.42,400.66,397.92,395.97,394.57,393.23,391.02,387.85,384.13,380.11,375.04,369.08,362.52,356.25,353.11,354.92,360.14,366.74,371.99,375.69,379.74,384.94,391.58,398.38,405.01,411.70,418.70,426.61,435.66,443.67,449.96,454.26,457.91,460.50,462.27,463.12,462.72,461.88,460.64
195.30,195.69,195.69,195.70,195.72,195.72,196.25,198.98,199.69,199.74,199.80,199.84,199.93,199.99,200.07,200.26,200.53,200.77,200.99,201.21,201.43,201.60,201.80,202.03,202.19,202.34,202.54,202.68,202.72,202.84,202.95,203.07,203.22,203.36,203.52,203.67,203.90,204.28,204.60,204.81,204.88,204.83,204.81,204.71,204.41,204.07,203.93,203.36,201.74,199.07,195.94,195.13,195.00,195.00,195.00,195.00,195.00,195.00,195.00,195.00,195.00,195.00,195.00,195.00,195.00,195.00,195.00,195.00,195.00,195.05,197.17,199.19,199.44,200.74,202.13,203.52,204.89,206.28,208.19,213.23,219.98,225.61,229.08,230.53,231.38,232.49,234.36,237.06,241.79,247.73,252.72,258.02,263.96,269.55,273.78,277.27,281.24,285.72,290.36,294.26,298.05,302.53,307.44,312.05,315.78,320.29,325.18,329.71,332.78,334.93,336.31,337.09,337.46,337.44,337.09,336.56,336.11,336.29,336.60,337.24,338.33,339.85,341.75,344.14,346.44,347.75,348.86,350.92,353.44,356.01,358.51,360.81,363.17,365.65,368.13,370.09,371.80,373.38,374.85,376.03,376.80,377.44,378.01,378.40,379.48,381.65,384.95,389.56,395.28,400.78,405.94,411.48,419.48,425.88,431.69,437.53,443.81,450.94,458.40,465.66,472.24,478.03,483.95,489.67,495.02,500.42,507.88,514.86,520.00,521.47,517.75,512.59,507.27,502.62,500.23,497.80,494.74,491.10,487.35,483.43,479.33,474.34,467.69,460.75,455.21,449.93,444.43,439.34,435.45,431.33,426.67,421.54,415.38,410.35,407.42,408.13,414.45,421.07,426.31,430.81,436.97,442.01,446.13,449.06,450.19,450.24,448.80,445.69,441.25,437.54,434.19,431.02,427.88,424.63,421.27,416.84,412.16,408.01,404.49,401.72,399.75,398.46,397.47,395.49,392.60,389.15,385.21,380.20,374.65,368.54,362.46,358.84,357.96,361.33,367.39,372.64,376.56,380.94,386.32,392.88,399.69,406.04,412.71,419.85,426.93,434.70,442.32,449.02,454.03,458.54,461.31,463.69,466.30,468.34,468.71,467.50
